# .PCD v0.7 - Point Cloud Data file format
VERSION 0.7
FIELDS x y z
SIZE 4 4 4
TYPE F F F
COUNT 1 1 1
WIDTH 118
HEIGHT 1
VIEWPOINT 0 0 0 1 0 0 0
POINTS 118
DATA ascii
0.77755594 -0.070651919 -0.052765887
0.75584161 -0.04133869 -0.051107835
0.76272547 -0.04936919 -0.051486745
0.75447786 -0.032538518 -0.051018342
0.75434649 -0.025427401 -0.051009763
0.75987101 -0.018328425 -0.051280599
0.75562173 -0.0013942407 -0.050903026
0.76226169 -0.0096127596 -0.05140651
0.77419406 -0.071252652 -0.04358862
0.7831763 -0.078772902 -0.040855736
0.76726824 -0.065579742 -0.043132477
0.76188684 -0.058280133 -0.042842723
0.75555694 -0.046066135 -0.042491805
0.75406009 -0.035307199 -0.043384377
0.75261158 -0.025228573 -0.043540936
0.75432628 -0.017096844 -0.041636843
0.75832069 -0.0095559629 -0.0426967
0.76156652 -0.0022102715 -0.042881545
0.76626658 0.0048292759 -0.043650527
0.77515 0.0091336174 -0.040976454
0.77823281 0.011684013 -0.040658511
0.77643323 -0.073152401 -0.033378083
0.78013074 -0.078633659 -0.034831308
0.76382852 -0.064465679 -0.034381229
0.77172834 -0.066756971 -0.034518547
0.75908542 -0.058598384 -0.034135889
0.76216429 -0.057929393 -0.034137789
0.75486672 -0.046082113 -0.033878781
0.7529307 -0.034556109 -0.0337773
0.75244504 -0.024141168 -0.035641242
0.75559187 -0.018007796 -0.034054883
0.75777423 -0.0081507722 -0.034052014
0.76165241 -0.0010556845 -0.034042597
0.76637077 0.0038569006 -0.034444652
0.7751351 0.0091334842 -0.032119319
0.77784193 0.013445161 -0.032037735
0.77718341 -0.073188633 -0.024598101
0.78922778 -0.079051733 -0.029300813
0.76383287 -0.064479977 -0.0256841
0.77070355 -0.066725798 -0.025768828
0.76162004 -0.058286067 -0.025541183
0.75530577 -0.045609683 -0.025802119
0.75285542 -0.033531182 -0.025482193
0.75381184 -0.023806402 -0.023659706
0.75432354 -0.018046394 -0.025413901
0.75776911 -0.0081578949 -0.025432028
0.7616567 -0.0010698845 -0.025402607
0.76787168 0.0039527542 -0.025776198
0.77312249 0.0089991437 -0.023202686
0.77824163 0.011655011 -0.023012819
0.77728391 -0.072705194 -0.015289501
0.78276372 -0.076813534 -0.01543125
0.76383865 -0.064499035 -0.014087925
0.77169418 -0.066757269 -0.014171912
0.76098704 -0.058286108 -0.014002459
0.75571251 -0.045967147 -0.012936656
0.7533778 -0.034915581 -0.01440643
0.75396609 -0.024747021 -0.013852622
0.7545554 -0.018041132 -0.01396802
0.75798559 -0.0086355153 -0.014421457
0.76305103 -0.0021471314 -0.012585433
0.76836252 0.003968291 -0.014136725
0.77260828 0.0089654624 -0.014357343
0.77724165 0.011564207 -0.014165791
0.7815209 0.017773163 -0.017193915
0.77858061 -0.070764706 -0.0025769887
0.78547662 -0.07303863 -0.002572689
0.77119219 -0.062337138 -0.0030188484
0.7589857 -0.050021045 -0.0024335957
0.76320946 -0.056900427 -0.0053868387
0.75736797 -0.041407086 -0.0024091075
0.76055437 -0.046501063 -0.0025152734
0.75812382 -0.033948399 -0.0024545984
0.75688797 -0.023961389 -0.0024428631
0.75882483 -0.018858058 -0.0034899053
0.7609058 -0.010706827 -0.0033351793
0.76747304 -0.0033496907 -0.0024712021
0.76876253 0.0028497216 -0.0054986337
0.77604651 0.0070811203 -0.0038839758
0.78950548 -0.07319425 0.006317887
0.79058081 -0.071142934 0.0063611781
0.77624375 -0.063573949 0.0042959251
0.78479582 -0.06716451 0.0033310279
0.76666433 -0.05261635 0.0032949063
0.77072513 -0.057025816 0.0062152278
0.76259392 -0.043951802 0.0061727143
0.75975966 -0.032781929 0.0062229354
0.76099491 -0.035063058 0.0061106486
0.76088578 -0.02280513 0.0061605903
0.76322252 -0.014867506 0.0032494434
0.7667672 -0.0083284164 0.0043267165
0.77456683 -0.0015118632 0.006301845
0.77774513 0.0033853948 0.0033269254
0.78100634 0.0059365649 0.0064059696
0.77493775 -0.062936686 0.015034251
0.78124088 -0.067055114 0.015080799
0.76615214 -0.052617695 0.01488269
0.77011341 -0.058844958 0.015017329
0.75937927 -0.041419905 0.014841322
0.76329505 -0.046517398 0.014772441
0.7595135 -0.032799952 0.014851851
0.76022667 -0.035071876 0.014734849
0.76104468 -0.022804858 0.014813043
0.76318634 -0.013710395 0.014884103
0.76624477 -0.0077849147 0.014947403
0.77230644 -0.0016473958 0.015072322
0.7797296 0.0035043331 0.01223122
0.78101075 0.0059220204 0.015255481
0.77474797 -0.061473113 0.023823652
0.76500356 -0.050087716 0.023637615
0.75888288 -0.041437961 0.023462985
0.76277727 -0.046517007 0.023408255
0.75926745 -0.032817975 0.02347696
0.76046312 -0.035066579 0.023375019
0.76128417 -0.021267412 0.023539221
0.76268744 -0.014886215 0.023511909
0.76681399 -0.0095033674 0.023703413
0.77137846 -0.0028604316 0.023821902
