# .PCD v0.7 - Point Cloud Data file format
VERSION 0.7
FIELDS x y z
SIZE 4 4 4
TYPE F F F
COUNT 1 1 1
WIDTH 184
HEIGHT 1
VIEWPOINT 0 0 0 1 0 0 0
POINTS 184
DATA ascii
0.76382971 -0.077043451 -0.051529437
0.75106215 -0.065042727 -0.050733436
0.7497043 -0.05929368 -0.050672926
0.7639091 -0.055275608 -0.05421187
0.74681461 -0.0449895 -0.050555341
0.74823087 -0.032895364 -0.050593704
0.75243652 -0.033286419 -0.052617684
0.74858063 -0.024959508 -0.050782569
0.75765848 -0.015068896 -0.053390615
0.76241368 -0.013579696 -0.053409945
0.7637403 -0.0073565859 -0.053336941
0.77213603 -0.0081153465 -0.054164574
0.76674324 -0.082775161 -0.04464538
0.77497464 -0.085330576 -0.045984898
0.78359562 -0.08714588 -0.044236187
0.75806457 -0.073826395 -0.044212431
0.76676476 -0.073542267 -0.044979669
0.77340019 -0.075201213 -0.046451803
0.75497633 -0.064999752 -0.044744071
0.76460272 -0.06508632 -0.045824688
0.7482546 -0.056769595 -0.044625413
0.75675797 -0.053288981 -0.04525565
0.74709028 -0.045657646 -0.043726325
0.75350302 -0.045754462 -0.043158792
0.74679172 -0.036142536 -0.043831222
0.75319314 -0.037419751 -0.045896202
0.74806356 -0.024961377 -0.042150702
0.7554636 -0.024771545 -0.04618917
0.75443339 -0.016519712 -0.043950398
0.76204574 -0.015035465 -0.045724962
0.76520509 -0.0059168413 -0.044716936
0.77232695 -0.0026176516 -0.0456049
0.77276397 0.0018113733 -0.042300798
0.78132123 0.0034386208 -0.046072468
0.78736591 0.011476755 -0.046061881
0.77471209 -0.091150321 -0.03555692
0.76628727 -0.08254087 -0.034886245
0.77572113 -0.084335186 -0.034391802
0.78564072 -0.087232366 -0.035492126
0.75750047 -0.073764555 -0.034364127
0.76276505 -0.073358908 -0.036034107
0.7729122 -0.075170182 -0.037734035
0.75460607 -0.064170264 -0.035181694
0.76397157 -0.069234923 -0.037256081
0.74794757 -0.056530792 -0.034815796
0.75497651 -0.054160349 -0.036172777
0.74577963 -0.04547549 -0.03333886
0.75390792 -0.045732804 -0.036097184
0.74767721 -0.035371792 -0.034422271
0.75327623 -0.035467144 -0.035126649
0.74754643 -0.024963271 -0.033526454
0.7534008 -0.025992699 -0.036105022
0.75479823 -0.016260684 -0.036323596
0.76155102 -0.013687531 -0.034996737
0.75947362 -0.0072149881 -0.034129329
0.76525354 -0.005867891 -0.033076227
0.77462029 -0.002835955 -0.037593693
0.77226257 0.0018042938 -0.036455981
0.78454995 0.0064384732 -0.03760685
0.78179884 0.011105044 -0.036903385
0.77353996 -0.090149611 -0.021650866
0.78114915 -0.09715347 -0.025673022
0.76747549 -0.082705043 -0.025415856
0.77416116 -0.083234541 -0.02553024
0.78566098 -0.087218672 -0.026635017
0.79276198 -0.087559864 -0.020912625
0.7573297 -0.073786929 -0.024148514
0.7656737 -0.072975494 -0.027871018
0.75542438 -0.063893169 -0.025682967
0.7473982 -0.056555193 -0.02390866
0.75524092 -0.054138176 -0.027666606
0.74549788 -0.045472253 -0.023449816
0.75417286 -0.045705054 -0.027616754
0.74658436 -0.034386296 -0.025507258
0.75253403 -0.036846958 -0.025248328
0.74802983 -0.024942379 -0.02494693
0.75353855 -0.02670005 -0.026179733
0.75585824 -0.016240278 -0.026231876
0.76409221 -0.011209931 -0.028341994
0.75945646 -0.0072053331 -0.025386494
0.76490194 -0.005864386 -0.024348533
0.77464867 -0.0019521251 -0.026055502
0.77549529 0.003744669 -0.028393894
0.78353989 0.006383826 -0.024644401
0.78282261 0.011233883 -0.025172353
0.77383685 -0.090169951 -0.012092736
0.76750427 -0.082799964 -0.012828688
0.77590919 -0.084284902 -0.015781235
0.7581504 -0.073814064 -0.012689695
0.76580787 -0.072627544 -0.016604731
0.77296525 -0.075134367 -0.01457222
0.75423163 -0.06492383 -0.014281695
0.76099586 -0.060758818 -0.017168252
0.7488333 -0.056672547 -0.012167154
0.7560119 -0.054113291 -0.016326101
0.74686766 -0.045932174 -0.012635658
0.75393039 -0.04566868 -0.016287085
0.74715602 -0.035644799 -0.013616296
0.75279158 -0.036232349 -0.014220189
0.74950814 -0.024895532 -0.013513102
0.75507593 -0.024744043 -0.014926782
0.75649089 -0.016189786 -0.014164132
0.7641179 -0.011192553 -0.017102035
0.76389354 -0.0061666118 -0.013710001
0.77478647 -0.0013429811 -0.015888801
0.77597541 0.0031095706 -0.014955021
0.77593511 -0.085954174 -0.002272395
0.78188759 -0.081208952 -0.008878462
0.76397431 -0.073544927 -0.0027441771
0.77435482 -0.075893849 -0.0050247968
0.75556582 -0.06494949 -0.0066665933
0.76780862 -0.067154028 -0.0049652024
0.75452042 -0.056116082 -0.0030572545
0.76368797 -0.059847426 -0.0067787189
0.749726 -0.044949155 -0.0019885951
0.75291675 -0.04429584 -0.0050049825
0.76062608 -0.049638055 -0.0058105085
0.7495172 -0.033485409 -0.0020040448
0.75507224 -0.037278544 -0.0037126285
0.75547433 -0.027028181 -0.0043109744
0.76156867 -0.023372829 -0.0032653883
0.75945055 -0.015915234 -0.0020525407
0.76487619 -0.014812311 -0.00472546
0.76534057 -0.0070034177 -0.0045918096
0.77304482 -0.0023422225 -0.0060791424
0.78175616 -0.0019969917 -0.0031177551
0.77984875 0.0033925408 -0.0088331737
0.78066152 0.0034414683 -0.0035358928
0.77761269 -0.083246425 0.0050478615
0.78337443 -0.088922523 0.0032477807
0.79408473 -0.081701443 0.0029077632
0.76537126 -0.071243823 0.0062668598
0.77316558 -0.077063553 0.0043438682
0.7821824 -0.076870129 0.0054310616
0.75888306 -0.063976124 0.00060707505
0.7653017 -0.063400947 0.0057261847
0.77525496 -0.069477394 0.002791957
0.75576884 -0.054279026 0.0058458811
0.76212978 -0.055825792 0.0045100385
0.75573015 -0.045142233 0.0066258409
0.76422685 -0.049628712 0.0026865071
0.75654799 -0.034812927 0.0063593164
0.76190197 -0.034461141 0.0026317101
0.75805748 -0.025950871 0.0055010542
0.76410979 -0.023062875 0.0068078302
0.76575375 -0.016920257 0.0052332603
0.77304292 -0.014145567 0.0058313645
0.77412528 -0.0083086519 0.0037884454
0.78122932 -0.0046083764 0.0053614718
0.78819627 0.0039720405 0.0084040351
0.77663559 -0.082256928 0.018669456
0.76504248 -0.073077254 0.015834231
0.77496028 -0.073974662 0.013812448
0.7805267 -0.076720342 0.010669341
0.75945932 -0.062741697 0.017334659
0.76565367 -0.064202301 0.013701369
0.75690794 -0.053651292 0.015246931
0.76366472 -0.058313806 0.016514024
0.75571889 -0.045126017 0.015224128
0.76476729 -0.049611598 0.01548577
0.75556928 -0.036581416 0.0152108
0.76172715 -0.032826774 0.01479675
0.75754821 -0.025941275 0.014149593
0.76402742 -0.022547143 0.016045958
0.76455456 -0.015747758 0.014196859
0.77288556 -0.011174499 0.01587816
0.77352703 -0.0078640655 0.015584283
0.78447199 -0.0018651066 0.014485289
0.78426123 0.0057013715 0.016122634
0.76532936 -0.071218327 0.024297748
0.77369767 -0.073393129 0.022340288
0.76674545 -0.064499445 0.022068297
0.77143329 -0.063684374 0.020038478
0.75893438 -0.052835584 0.021755967
0.76334554 -0.058641214 0.02192634
0.75585985 -0.046016846 0.022817744
0.75620759 -0.03597182 0.022799978
0.76104712 -0.038562283 0.022384843
0.75804734 -0.025905656 0.022815244
0.76148814 -0.017163325 0.02289065
0.77192438 -0.014810365 0.020706387
0.76906049 -0.0096038915 0.021711949
0.78161818 -0.00026360271 0.02199796
0.78426629 0.0057283719 0.022027334
