# .PCD v0.7 - Point Cloud Data file format
VERSION 0.7
FIELDS x y z
SIZE 4 4 4
TYPE F F F
COUNT 1 1 1
WIDTH 171
HEIGHT 1
VIEWPOINT 0 0 0 1 0 0 0
POINTS 171
DATA ascii
0.75170439 -0.086980559 -0.051004417
0.74247211 -0.06673637 -0.050454114
0.74570125 -0.059286125 -0.052599564
0.74980205 -0.047000282 -0.051022906
0.7500276 -0.040724788 -0.052885707
0.75462246 -0.035518296 -0.051391449
0.76935995 -0.11417769 -0.046256095
0.77355635 -0.11748832 -0.040623873
0.76245862 -0.10779062 -0.042967148
0.75388682 -0.098532274 -0.042510603
0.77688372 -0.095721141 -0.043330394
0.74666309 -0.086698353 -0.042139541
0.75942272 -0.08033558 -0.04229629
0.76662123 -0.086407311 -0.042721476
0.74414176 -0.078089401 -0.042027261
0.75750422 -0.072670437 -0.045977615
0.74237639 -0.069555931 -0.041950636
0.75112116 -0.064492628 -0.043187127
0.74270016 -0.058275212 -0.042000767
0.74679655 -0.047992766 -0.043247476
0.75003779 -0.040704228 -0.047247659
0.74882966 -0.035155706 -0.044334255
0.755108 -0.035511993 -0.042768225
0.74964112 -0.029591756 -0.044356015
0.75349963 -0.023921404 -0.04455797
0.76509583 -0.026658883 -0.043356847
0.75838149 -0.018162817 -0.044824008
0.76174533 -0.012419718 -0.044990573
0.76919061 -0.0064066062 -0.045405518
0.7761454 -0.0003177207 -0.042889826
0.7780022 0.0054852786 -0.042968638
0.77236247 -0.11446251 -0.034703474
0.76496118 -0.10800841 -0.034386292
0.7538721 -0.098536469 -0.033910614
0.77281034 -0.092523292 -0.037223674
0.74664855 -0.086702518 -0.033613842
0.76353478 -0.083370298 -0.036750242
0.74312252 -0.078046143 -0.033475634
0.7552343 -0.074460752 -0.036324359
0.74695104 -0.066136055 -0.035157945
0.74543285 -0.055047192 -0.034709208
0.74624223 -0.046752557 -0.035327096
0.74661291 -0.038865045 -0.037669986
0.75309056 -0.035535503 -0.034021191
0.75158513 -0.02672952 -0.036001809
0.76508081 -0.026663167 -0.034579717
0.75636333 -0.018217841 -0.036204837
0.76176596 -0.012378162 -0.033596382
0.76818722 -0.0064332983 -0.036735911
0.77615589 -0.00029660435 -0.037099395
0.77801269 0.0055064233 -0.037170589
0.77471018 -0.1205256 -0.023031926
0.77033246 -0.11428072 -0.02583636
0.76293236 -0.10784183 -0.025599193
0.75410908 -0.09856011 -0.025318062
0.77283156 -0.092480503 -0.025490439
0.74713677 -0.08673799 -0.025104912
0.76424527 -0.084344931 -0.028584894
0.74310797 -0.078050293 -0.02498422
0.75625569 -0.07446178 -0.027786134
0.74441302 -0.064833499 -0.026194409
0.75305372 -0.068700776 -0.027664199
0.74166828 -0.058266528 -0.024967259
0.74649119 -0.047030717 -0.026533447
0.74668193 -0.037904419 -0.027385198
0.75485533 -0.034560148 -0.026414357
0.75160038 -0.026698697 -0.02755045
0.76506579 -0.026667453 -0.025802586
0.77172071 -0.02062458 -0.028987324
0.75536186 -0.018229974 -0.027676247
0.76826864 -0.0082688751 -0.027177857
0.77617162 -0.00026492961 -0.028413756
0.77191436 -0.11589311 -0.015626334
0.76593351 -0.10810379 -0.014054173
0.75534719 -0.09865538 -0.013871451
0.77485269 -0.092558146 -0.016733743
0.74686599 -0.086727887 -0.01372416
0.76527292 -0.084333144 -0.016530506
0.74509805 -0.078150645 -0.013698946
0.75627643 -0.07442005 -0.01634242
0.741575 -0.069541797 -0.013636949
0.75192463 -0.064416677 -0.016257919
0.74518067 -0.055018842 -0.016334241
0.74633193 -0.046711762 -0.013598498
0.74796861 -0.037841629 -0.016192665
0.75405765 -0.035539519 -0.013892843
0.75148356 -0.027590867 -0.017216105
0.76704699 -0.026631095 -0.01413631
0.77569091 -0.020518674 -0.011330939
0.75690764 -0.018123996 -0.016396958
0.7673018 -0.0092163784 -0.016633991
0.77619261 -0.00022269646 -0.016832901
0.78417695 0.0060202302 -0.017010134
0.7753346 -0.11475597 -0.0053908727
0.76775271 -0.10537133 -0.0024249505
0.75784796 -0.098842807 -0.0052715419
0.7743727 -0.092487819 -0.0049611279
0.74843943 -0.083985835 -0.0052075023
0.75335282 -0.088059805 -0.0014112515
0.76580799 -0.08190842 -0.0063899159
0.7737208 -0.086589716 -0.0020466691
0.74709278 -0.078249633 -0.0051984307
0.75892156 -0.072560124 -0.0039650025
0.74532092 -0.069687113 -0.0023389391
0.75358129 -0.064404488 -0.0063357628
0.74489427 -0.058340944 -0.0051838956
0.74707198 -0.040599383 -0.0077499594
0.75056458 -0.047974654 -0.0036423057
0.75286233 -0.037616931 -0.0046428945
0.76054585 -0.035480704 -0.0023926659
0.75643098 -0.025529338 -0.0055187596
0.76952827 -0.026584245 -0.0024086956
0.77368063 -0.020578837 -0.0053820098
0.76646578 -0.013902888 -0.0041979793
0.77797705 -0.0019552535 -0.004293201
0.76957524 -0.10261466 0.0063509513
0.77496612 -0.10888136 0.0034456667
0.76168406 -0.096245557 0.0033953395
0.75713652 -0.087341577 0.0062604952
0.77535468 -0.084694095 0.0057822536
0.75176454 -0.07705307 0.0033599089
0.76637161 -0.074668556 0.0037298878
0.74940157 -0.066989496 0.0062138857
0.75736845 -0.060178824 0.0036200248
0.76116645 -0.068783522 0.0036778566
0.74889696 -0.058430724 0.00050290651
0.75139469 -0.058483627 0.0062381085
0.75560057 -0.047968104 0.0049207602
0.75560188 -0.0376454 0.0035077177
0.76715046 -0.034445155 0.0044356394
0.75885993 -0.029163983 0.003484217
0.76568329 -0.020489749 0.0034768882
0.77455801 -0.011608414 0.0034784202
0.78252721 -0.0054703671 0.0034882636
0.76956028 -0.10261896 0.01512808
0.77494597 -0.10888711 0.015224696
0.76116127 -0.09621609 0.0149721
0.75485981 -0.087212443 0.014860731
0.77208191 -0.080631912 0.012554219
0.75090581 -0.075597093 0.014801792
0.76588446 -0.074620791 0.01241686
0.74838316 -0.06696146 0.014769316
0.75797975 -0.062991828 0.012214962
0.76168561 -0.068764336 0.012316443
0.74987537 -0.058454715 0.0148084
0.75577784 -0.057301369 0.012147724
0.75446713 -0.047951546 0.013493001
0.75663036 -0.037597466 0.012034324
0.76552165 -0.035433557 0.015152074
0.75887543 -0.02913285 0.012021291
0.7662068 -0.02044053 0.012082975
0.77457374 -0.01157674 0.012164065
0.7820335 -0.0054676007 0.012240174
0.76853883 -0.10254537 0.023874003
0.76114643 -0.096220329 0.023657799
0.75559938 -0.087267458 0.023505075
0.77159536 -0.080580108 0.021313554
0.74770677 -0.072622187 0.02329208
0.750058 -0.078405865 0.023352319
0.76539725 -0.074573047 0.021096211
0.74937224 -0.066997863 0.023356717
0.76211625 -0.065886796 0.020937622
0.75332862 -0.057876855 0.022059347
0.75308239 -0.047936462 0.022036495
0.75462019 -0.03759646 0.020508507
0.7660073 -0.035434946 0.023946729
0.75889087 -0.029101716 0.020558363
0.76072812 -0.023434116 0.020563889
0.76663524 -0.017578159 0.02067945
0.77458948 -0.011545066 0.020849705
0.78255898 -0.0054064337 0.021019546
