# .PCD v0.7 - Point Cloud Data file format
VERSION 0.7
FIELDS x y z
SIZE 4 4 4
TYPE F F F
COUNT 1 1 1
WIDTH 157
HEIGHT 1
VIEWPOINT 0 0 0 1 0 0 0
POINTS 157
DATA ascii
0.75388718 -0.062315948 -0.051767331
0.75343835 -0.055240236 -0.052840911
0.74698472 -0.041444223 -0.050431848
0.75105262 -0.043789901 -0.052594528
0.74951059 -0.035258614 -0.052427214
0.74922407 -0.026892167 -0.052310452
0.74446881 -0.019704333 -0.052682627
0.75644338 -0.018494667 -0.05209779
0.75928426 -0.0093916105 -0.052990224
0.76062977 -0.0024033331 -0.053652201
0.76877666 0.0036802483 -0.054166704
0.77283013 0.0095592756 -0.054394867
0.76902282 -0.08185932 -0.042373504
0.77349806 -0.086358882 -0.042262629
0.76508254 -0.075587764 -0.046069093
0.77640021 -0.07902573 -0.043722808
0.75537944 -0.065986961 -0.044607468
0.76018608 -0.064124584 -0.045593705
0.74927211 -0.053784776 -0.044347055
0.75399739 -0.055724777 -0.044932168
0.74808568 -0.046859842 -0.04501294
0.75023419 -0.045287982 -0.043915123
0.74781573 -0.034351557 -0.044261992
0.75083417 -0.038807664 -0.047667269
0.74770737 -0.027320826 -0.043930601
0.75092489 -0.025778702 -0.045959815
0.7543667 -0.014328507 -0.044686202
0.75709236 -0.0053555467 -0.04495278
0.76188987 -0.0044678161 -0.044541605
0.76571333 0.0034877686 -0.045388043
0.77377576 0.0062687262 -0.043360084
0.78205919 0.015931398 -0.043354835
0.77394921 -0.085647911 -0.034163758
0.78231883 -0.089140058 -0.031454161
0.75698096 -0.073058829 -0.035452835
0.76562864 -0.077638634 -0.035757065
0.77236748 -0.073038049 -0.036133789
0.75507718 -0.066601768 -0.03442017
0.76275063 -0.06701903 -0.034205116
0.74943024 -0.055367019 -0.033743095
0.75318742 -0.056571163 -0.036788248
0.74733788 -0.045988068 -0.034990173
0.75091565 -0.044342998 -0.036403853
0.74764442 -0.034421176 -0.034576859
0.74786925 -0.027230909 -0.035471316
0.75087875 -0.021988466 -0.03534551
0.75390166 -0.015693525 -0.035129175
0.75819254 -0.007294219 -0.03604193
0.76290303 -0.0033848051 -0.034997087
0.76675636 0.0035749455 -0.036880657
0.77291703 0.0050889081 -0.035442669
0.77462995 -0.083299696 -0.023073522
0.78233773 -0.089160509 -0.024107063
0.76487392 -0.076617993 -0.026670126
0.77340519 -0.075949855 -0.025933204
0.75495058 -0.065992199 -0.024639716
0.76090616 -0.066005319 -0.027406782
0.74941748 -0.055377185 -0.025217423
0.75415772 -0.056412879 -0.027743662
0.7475661 -0.045520768 -0.025147267
0.75093186 -0.044325911 -0.027918177
0.74779338 -0.034633957 -0.026532549
0.74801654 -0.026923096 -0.02666129
0.75082308 -0.021991435 -0.022539917
0.74975556 -0.018941632 -0.027166933
0.75461137 -0.013971196 -0.025050849
0.75848073 -0.0060955994 -0.027283741
0.76692593 -0.0023154654 -0.025182553
0.76677275 0.0035922048 -0.028309258
0.77307796 0.0044210041 -0.025421869
0.7801162 0.008001917 -0.020659922
0.77379441 -0.084854715 -0.016211195
0.76482558 -0.076900743 -0.01552245
0.7774564 -0.076072641 -0.017224483
0.75498796 -0.06705752 -0.015416678
0.76186037 -0.067734241 -0.014961354
0.74857402 -0.052456014 -0.015441699
0.75326127 -0.057150591 -0.015026848
0.74754333 -0.044479404 -0.014608335
0.75146103 -0.044301916 -0.016613003
0.74865663 -0.034986634 -0.015010429
0.7487182 -0.027218694 -0.015648076
0.75128263 -0.021981467 -0.011163048
0.74988914 -0.018428685 -0.015110491
0.75441283 -0.015036185 -0.014224535
0.75646812 -0.0078914268 -0.01642889
0.76336116 -0.0033781901 -0.014355849
0.76679462 0.0036152168 -0.016880732
0.77339405 0.0051092021 -0.014967971
0.77825546 -0.083190903 -0.0048672161
0.76590872 -0.074683361 -0.0054268567
0.77239066 -0.07721477 -0.0044703563
0.75644016 -0.065672308 -0.0067874808
0.76446229 -0.066725455 -0.0042646439
0.7485708 -0.052484918 -0.0068931771
0.75516862 -0.055879373 -0.0040374123
0.76022458 -0.058361601 -0.005326177
0.7492491 -0.048256725 -0.0075416751
0.75322133 -0.046978731 -0.0033833154
0.74949324 -0.035412777 -0.0068350988
0.75231683 -0.036903042 -0.0031823127
0.75218344 -0.027508132 -0.0050313654
0.75727427 -0.017374288 -0.0032889929
0.76314807 -0.011204191 -0.0018751455
0.76351863 -0.0058544278 -0.0055725761
0.77182484 -0.001477686 -0.0038471399
0.76957494 0.0019679973 -0.0045096683
0.77590817 0.0054056174 -0.0063683353
0.77806908 0.010051284 -0.0026390138
0.7834689 -0.083735645 0.004650143
0.76923108 -0.07132335 0.0024331408
0.77550274 -0.074812442 0.0044563762
0.78137994 -0.078502454 0.0090029454
0.75986344 -0.061568934 0.0049928189
0.76504433 -0.065270655 0.0049746251
0.75755858 -0.05615624 0.0046441951
0.76026559 -0.05841681 0.004569375
0.75639045 -0.04586935 0.0055013597
0.7601766 -0.049859002 0.0032563508
0.7546193 -0.037629344 0.0050943219
0.7565282 -0.026796335 0.0055868919
0.76274645 -0.015650459 0.0049807811
0.76489794 -0.0076080607 0.0031455755
0.77314717 -0.0052053938 0.0052224086
0.77813202 0.0044319681 0.0060684057
0.7804687 0.00040956168 0.0048893085
0.78466296 -0.084312953 0.014873066
0.76823312 -0.072327942 0.017487794
0.7753464 -0.07512024 0.014071925
0.75986451 -0.061568689 0.010790915
0.76467115 -0.06564343 0.013406763
0.75734979 -0.056788545 0.015361801
0.76026338 -0.05843639 0.010359818
0.75547451 -0.046989799 0.014704653
0.76044655 -0.049842931 0.011859406
0.75454116 -0.037239455 0.014250586
0.7562964 -0.02573744 0.014986723
0.75988585 -0.016189909 0.01167867
0.76231176 -0.015798457 0.014288328
0.76510441 -0.0083456384 0.014217101
0.77216619 -0.0054835137 0.014411544
0.78033364 0.0024845945 0.014287183
0.76963127 -0.070361361 0.022199318
0.77099794 -0.073557168 0.022710318
0.76409119 -0.066154785 0.021610031
0.77244771 -0.064231426 0.020889975
0.75770187 -0.055646993 0.022099799
0.76127899 -0.058405057 0.02125673
0.75404131 -0.046983428 0.021997955
0.7602095 -0.049824372 0.020456288
0.75490439 -0.037111457 0.021123003
0.75546408 -0.028019464 0.02143167
0.75939137 -0.016192753 0.020198224
0.76299989 -0.016512422 0.022296008
0.76613724 -0.0082818046 0.021452155
0.77102542 -0.0016287998 0.020412358
0.77815974 0.0044611548 0.020563588
