# .PCD v0.7 - Point Cloud Data file format
VERSION 0.7
FIELDS x y z
SIZE 4 4 4
TYPE F F F
COUNT 1 1 1
WIDTH 183
HEIGHT 1
VIEWPOINT 0 0 0 1 0 0 0
POINTS 183
DATA ascii
0.76277947 -0.09655565 -0.051917128
0.77169299 -0.094247937 -0.058361817
0.74912816 -0.08152315 -0.050982662
0.76154906 -0.08513137 -0.050645616
0.74847454 -0.073971026 -0.052833378
0.75497246 -0.07759285 -0.055173561
0.75144219 -0.069924846 -0.05144798
0.74764144 -0.057518996 -0.051788725
0.75524831 -0.052525088 -0.052556045
0.74768555 -0.047588188 -0.050900348
0.75064617 -0.048102692 -0.052501559
0.75491786 -0.0374856 -0.051579498
0.76104093 -0.030122105 -0.052196078
0.75681853 -0.025604203 -0.052720424
0.76345336 -0.021444682 -0.052381359
0.78344518 -0.11148153 -0.040385511
0.77319545 -0.10353287 -0.042688865
0.78233898 -0.10919253 -0.041730911
0.75889218 -0.091800071 -0.043204039
0.76468182 -0.095838688 -0.045064919
0.77352846 -0.099609211 -0.048464831
0.75490171 -0.084602393 -0.043516535
0.76048571 -0.085101031 -0.042176291
0.74471402 -0.071967266 -0.043175846
0.75371081 -0.074904598 -0.044673905
0.74684191 -0.065138727 -0.043311935
0.75059438 -0.065646932 -0.044561036
0.74652743 -0.055716373 -0.043649346
0.75293219 -0.05800787 -0.04571142
0.74782145 -0.045249291 -0.043884646
0.75198042 -0.046604231 -0.044825226
0.7534222 -0.034476016 -0.044112526
0.75695342 -0.026763812 -0.043651272
0.76452762 -0.022920277 -0.043987319
0.76616848 -0.017670041 -0.04419367
0.77443123 -0.013047469 -0.044531435
0.77955079 -0.0076036779 -0.042501431
0.78046125 -0.11248421 -0.032516684
0.77482045 -0.1036704 -0.034066867
0.75788581 -0.091739789 -0.034574822
0.76518333 -0.095421769 -0.035408281
0.77115053 -0.099471398 -0.035581991
0.75432092 -0.084577881 -0.034931
0.76045245 -0.085127011 -0.033776395
0.74731696 -0.073682338 -0.037233442
0.75287819 -0.077524692 -0.03400638
0.74584341 -0.065434583 -0.034491841
0.75339043 -0.068491034 -0.033562668
0.74592847 -0.056176726 -0.034704663
0.75202781 -0.057571746 -0.03357311
0.74676603 -0.045802116 -0.034503128
0.75295591 -0.04664284 -0.033687059
0.74919802 -0.036295675 -0.033982489
0.75476402 -0.034716643 -0.035081904
0.75701708 -0.025893919 -0.034949109
0.76209396 -0.025271364 -0.035457265
0.77144831 -0.021325164 -0.031808835
0.76616371 -0.01679863 -0.03608454
0.77462852 -0.015404921 -0.035195019
0.77752858 -0.0077182995 -0.036575038
0.77945262 -0.11241798 -0.023651231
0.77405977 -0.10361949 -0.025322381
0.75788331 -0.091744408 -0.026003407
0.76466441 -0.095858157 -0.025743408
0.77032429 -0.099451631 -0.022828136
0.75534737 -0.085374892 -0.0254119
0.74730855 -0.073457435 -0.025477026
0.75371647 -0.076369993 -0.02454941
0.746176 -0.064505629 -0.026060797
0.75085676 -0.06753578 -0.02142269
0.74587381 -0.056180675 -0.026259394
0.75172752 -0.057599623 -0.022412095
0.74708402 -0.045695197 -0.025547747
0.75291157 -0.046677466 -0.022487197
0.74919426 -0.036316492 -0.025468227
0.75398219 -0.034380905 -0.02479518
0.75753134 -0.025879072 -0.026407694
0.76265311 -0.024311351 -0.02466291
0.77040011 -0.021377787 -0.023118757
0.76834387 -0.016937666 -0.026784917
0.77638453 -0.015483384 -0.023315877
0.78719556 -0.012016962 -0.023779478
0.77856553 -0.0076627494 -0.027896356
0.7804547 -0.1125202 -0.017792922
0.77366543 -0.10291852 -0.015162877
0.75787961 -0.091748625 -0.013146291
0.76645523 -0.096450947 -0.014528461
0.75464535 -0.085233025 -0.015305176
0.76139432 -0.085256502 -0.011390877
0.74735498 -0.072999969 -0.014656749
0.75411111 -0.07760568 -0.012992319
0.74668294 -0.064521156 -0.014803956
0.75184655 -0.067603417 -0.012180447
0.74634743 -0.055721838 -0.015481079
0.7521947 -0.057643656 -0.011265953
0.74802572 -0.045621842 -0.015330961
0.75286788 -0.046715856 -0.011283539
0.7491892 -0.036344241 -0.014115882
0.75459802 -0.034757845 -0.013857136
0.7580421 -0.025868034 -0.014996792
0.76370567 -0.024330055 -0.013599441
0.76770449 -0.017716013 -0.015238883
0.77538109 -0.01537217 -0.013441773
0.78219712 -0.012239455 -0.017689852
0.77604729 -0.007806676 -0.016189333
0.76990777 -0.1000613 -0.0029880775
0.77963483 -0.10573555 -0.008806712
0.78212792 -0.10042959 -0.00021984481
0.76589727 -0.093077861 -0.0035140468
0.77489376 -0.096260734 -0.0037119717
0.75612563 -0.083608367 -0.0037555352
0.76352018 -0.086115539 -0.002680422
0.74999928 -0.073207915 -0.002842983
0.75493622 -0.075827576 -0.0034792598
0.74884033 -0.063384242 -0.0036315322
0.75583416 -0.068895906 -0.0022160243
0.7474038 -0.053355802 -0.00278442
0.75246763 -0.057607066 -0.0035781413
0.75294518 -0.046281286 -0.0036202285
0.75713462 -0.035487641 -0.0035289174
0.76273656 -0.036599364 -0.0010197081
0.75996256 -0.025508374 -0.0073434538
0.76298082 -0.026599888 -0.0031888657
0.7757076 -0.021713058 -0.0035447353
0.76685083 -0.019613925 -0.004529262
0.77758896 -0.014258065 -0.0055452455
0.78237796 -0.015346994 -0.0029733684
0.78268123 -0.0074383742 -0.00756254
0.77191198 -0.10022795 0.0057381513
0.78364509 -0.10057468 0.0084015382
0.76965702 -0.094274551 0.005738365
0.77755737 -0.094431229 0.0051699951
0.75813001 -0.082110122 0.0056896242
0.76670372 -0.08613947 0.004829918
0.75651532 -0.072823413 0.0049405368
0.76199889 -0.075743966 0.005644815
0.75286734 -0.063479587 0.0048783766
0.76166481 -0.06618543 0.008320854
0.7544018 -0.054662578 0.0050100377
0.76057029 -0.057885177 0.0055226311
0.75638437 -0.044294756 0.0041612536
0.76096326 -0.04682754 0.0055655297
0.76348287 -0.035374504 0.0063134455
0.76484442 -0.029067487 0.0046213721
0.77556658 -0.022661574 0.0055978904
0.78298318 -0.022582147 0.0057941433
0.77600992 -0.019239265 0.0041200253
0.78139567 -0.013260361 0.0070647057
0.77391601 -0.10039475 0.014517712
0.78155398 -0.10043444 0.014117572
0.76714402 -0.094133124 0.014410473
0.77508986 -0.093638942 0.014473207
0.7812109 -0.097274661 0.011244115
0.75712317 -0.082081281 0.014269273
0.76478183 -0.085451633 0.014508593
0.75598449 -0.074001141 0.013889785
0.76197237 -0.075181909 0.015407828
0.756495 -0.064157076 0.01508734
0.75515008 -0.055932939 0.014325263
0.75525594 -0.045580212 0.013730716
0.76142818 -0.046864681 0.016900256
0.75852668 -0.037728347 0.014578917
0.76429653 -0.033421852 0.014818527
0.76671845 -0.027572768 0.014724566
0.77434248 -0.023224784 0.01536062
0.77501369 -0.019282356 0.012820346
0.78395683 -0.013138397 0.015883353
0.76663834 -0.094121806 0.023088874
0.77014267 -0.090723813 0.022672487
0.75812238 -0.082152143 0.022878142
0.76508892 -0.086809345 0.022290682
0.75760782 -0.07411693 0.022337716
0.76321489 -0.074538849 0.025215656
0.75724483 -0.065449141 0.023435751
0.74789315 -0.053423926 0.02267809
0.75501394 -0.056180179 0.021901766
0.75575113 -0.044875193 0.02229929
0.75881273 -0.036562782 0.022116363
0.76277459 -0.034545988 0.022803687
0.76436234 -0.029069185 0.021857951
0.77306181 -0.022736728 0.02311134
0.77097058 -0.019450758 0.021423597
0.78737497 -0.014638575 0.023102708
