# .PCD v0.7 - Point Cloud Data file format
VERSION 0.7
FIELDS x y z
SIZE 4 4 4
TYPE F F F
COUNT 1 1 1
WIDTH 228
HEIGHT 1
VIEWPOINT 0 0 0 1 0 0 0
POINTS 228
DATA ascii
0.76757193 -0.071319416 -0.061487794
0.75684869 -0.028898755 -0.060971145
0.76343828 -0.071218975 -0.05269267
0.75484335 -0.065283045 -0.052322842
0.73842412 -0.053424779 -0.05136808
0.74716985 -0.053035248 -0.051687989
0.75057572 -0.050902534 -0.05225224
0.7464419 -0.042085916 -0.05182017
0.74560618 -0.036156684 -0.051721256
0.75631672 -0.028901478 -0.052347478
0.76797932 -0.012019827 -0.054714665
0.77376902 -0.0081526674 -0.0535447
0.78861421 -0.0054404363 -0.050194174
0.77257508 -0.1133557 -0.047947373
0.76696479 -0.10102078 -0.041685756
0.77375805 -0.10750885 -0.048013683
0.76667887 -0.092888057 -0.044041708
0.77530563 -0.096944205 -0.042376921
0.74847823 -0.084240422 -0.042549938
0.75534356 -0.088498712 -0.046824478
0.76301008 -0.084674954 -0.04442367
0.77379137 -0.088311337 -0.042242747
0.74573773 -0.072412215 -0.043228656
0.75481451 -0.074100882 -0.044221193
0.76374662 -0.078126237 -0.045769729
0.73916924 -0.061936151 -0.042935167
0.74804419 -0.064588219 -0.044238094
0.75532967 -0.063861288 -0.045029938
0.73843455 -0.053420492 -0.042876657
0.74733454 -0.0543948 -0.043874219
0.75380278 -0.056140967 -0.046170142
0.74648756 -0.044311285 -0.044192482
0.75194323 -0.046798039 -0.04587717
0.74466759 -0.03330693 -0.043105993
0.7541092 -0.035606239 -0.045521069
0.74882472 -0.024673166 -0.043351963
0.75519353 -0.026425555 -0.043619778
0.76285863 -0.020055635 -0.04604318
0.75730294 -0.016396644 -0.04447953
0.76472396 -0.013714369 -0.043181133
0.77239192 -0.011680971 -0.043673206
0.76615471 -0.0067123212 -0.042906836
0.78017926 -0.0059271324 -0.044018768
0.76647663 -0.10097738 -0.032827549
0.78121424 -0.10061453 -0.032810543
0.76458526 -0.092931241 -0.033914581
0.77601862 -0.094436936 -0.035006523
0.74945635 -0.085253648 -0.034942683
0.75995725 -0.082272522 -0.0320407
0.7645812 -0.086062834 -0.034466069
0.77326143 -0.088299736 -0.033588123
0.74558085 -0.072399355 -0.034646761
0.75413501 -0.074168339 -0.034461461
0.76526934 -0.079590186 -0.033124804
0.74495012 -0.063828982 -0.033546109
0.75298887 -0.065827124 -0.035746198
0.73844498 -0.0534162 -0.034385234
0.74544442 -0.054917574 -0.033043705
0.7524339 -0.055575341 -0.035219193
0.73971033 -0.044930626 -0.034437746
0.74570936 -0.045139462 -0.033756506
0.75425476 -0.046804361 -0.034961931
0.74522591 -0.034844369 -0.034659855
0.75218827 -0.03538128 -0.033398472
0.74833405 -0.024677373 -0.034731951
0.7564925 -0.02576099 -0.034080137
0.76204872 -0.020105138 -0.03492615
0.75520015 -0.017304428 -0.035062026
0.76456279 -0.013932294 -0.032837141
0.77027225 -0.011798974 -0.035188399
0.76541841 -0.0064464719 -0.035466213
0.77418339 -0.0046942993 -0.035316389
0.780155 -0.0059450259 -0.03274262
0.77188396 -0.10436734 -0.024178661
0.78067416 -0.10057021 -0.024059299
0.76604432 -0.093439937 -0.024741525
0.77580744 -0.094632536 -0.02490689
0.78397924 -0.094558872 -0.025369273
0.74896771 -0.085217983 -0.026297804
0.75937307 -0.084155619 -0.025403686
0.76390517 -0.085327148 -0.02625208
0.77477694 -0.088389337 -0.025003547
0.74509078 -0.072373778 -0.026059121
0.75463831 -0.074171133 -0.025918707
0.76473874 -0.079582073 -0.024594001
0.74466628 -0.064121932 -0.02534377
0.75335324 -0.06325978 -0.023222426
0.73845541 -0.053411912 -0.025893813
0.74699557 -0.054132339 -0.025264205
0.75492883 -0.056629378 -0.024958184
0.73972082 -0.04492633 -0.025934892
0.74600643 -0.043422922 -0.025119936
0.75241375 -0.046834435 -0.023846136
0.74611473 -0.034879729 -0.02554444
0.7540139 -0.036207814 -0.023782741
0.74733746 -0.024429161 -0.026012806
0.7549898 -0.026093777 -0.02501294
0.76281101 -0.020090777 -0.02388707
0.75493282 -0.016723214 -0.0263562
0.76616281 -0.012829806 -0.025125273
0.77221739 -0.011518387 -0.022744611
0.76726025 -0.0065490119 -0.025823796
0.77446127 -8.4546395e-05 -0.0240636
0.7825079 -0.0038642066 -0.024649698
0.76899332 -0.1011631 -0.015232911
0.77379453 -0.10749384 -0.018299423
0.76406825 -0.092887834 -0.013639279
0.77399373 -0.094795205 -0.01801409
0.78154916 -0.096100435 -0.013040841
0.74707437 -0.08221975 -0.014756031
0.75438428 -0.088419966 -0.014913784
0.76132518 -0.083256669 -0.014241653
0.77272296 -0.088435575 -0.014720566
0.74593681 -0.072398759 -0.014652533
0.75489235 -0.074162446 -0.014502523
0.76445717 -0.079592966 -0.013241961
0.74496222 -0.062894188 -0.014648213
0.7547465 -0.064217232 -0.013179151
0.74494749 -0.053738471 -0.015085084
0.75538975 -0.054862197 -0.012920058
0.74554807 -0.045298524 -0.01323019
0.75164199 -0.044642359 -0.015580442
0.74595159 -0.034713496 -0.014338486
0.75555319 -0.036194626 -0.012792227
0.74734849 -0.024413589 -0.014584251
0.75524169 -0.026065869 -0.014372029
0.76278716 -0.020108387 -0.012809011
0.75422096 -0.017314326 -0.014820806
0.76624334 -0.013537378 -0.0146599
0.77424008 -0.01144499 -0.012782899
0.76743871 -0.0063238558 -0.015028303
0.77594477 -0.0065584551 -0.018329237
0.78277254 -0.003846263 -0.014623677
0.77646756 3.346079e-05 -0.018193308
0.76669639 -0.095079668 -0.0033945804
0.77764809 -0.091826029 -0.00076870574
0.7842443 -0.097996406 -0.0037082292
0.75351882 -0.08450751 -0.0042826226
0.76588738 -0.083256215 -0.0035637626
0.77514005 -0.086680248 -0.003598433
0.74785608 -0.073645644 -0.0032932158
0.75780231 -0.074525468 -0.0046201604
0.76352453 -0.074819967 -0.001545198
0.74446571 -0.062067792 -0.0032760897
0.7550447 -0.064711384 -0.0026125824
0.76165026 -0.060353551 -0.003240522
0.74643183 -0.054319516 -0.0051549617
0.75407928 -0.052482497 -0.0025091858
0.74587989 -0.04467164 -0.0032025804
0.75477839 -0.045378998 -0.0031476906
0.74798816 -0.035049018 -0.0031928562
0.75619376 -0.035321541 -0.003474823
0.76030481 -0.031689517 -0.0026784022
0.75641102 -0.025826549 -0.0049176067
0.76511765 -0.021977836 -0.0030236717
0.75338632 -0.018494902 -0.0060781324
0.76454818 -0.018176097 -0.002231929
0.77341646 -0.012644023 -0.0041417493
0.76944768 -0.0062171253 -0.0062475177
0.77535933 -0.0079410002 -0.0044589397
0.78746355 -0.0055723875 -0.004595744
0.77319622 -0.095531687 0.0054600528
0.78018469 -0.09200307 0.0079605095
0.75958371 -0.082897052 0.0053770593
0.76739019 -0.089223675 0.0054239989
0.7744801 -0.085143328 0.0050432328
0.78225422 -0.087393008 0.0038494458
0.75462073 -0.072740905 0.0054032193
0.76462889 -0.07474798 0.0055356468
0.7720992 -0.077115253 0.0038101219
0.753627 -0.065031104 0.006193859
0.76346445 -0.063561052 0.0046249195
0.74790388 -0.056424085 0.0052947016
0.75539011 -0.053632569 0.0058425455
0.7620374 -0.052232213 0.0037806032
0.74926221 -0.044960879 0.0052939099
0.75623852 -0.043486491 0.005107502
0.76186347 -0.04145987 0.0037868479
0.7553333 -0.035222493 0.0049074404
0.76256824 -0.032615617 0.0072056251
0.75535452 -0.027070023 0.0054650004
0.76475656 -0.025960704 0.0046147481
0.77115172 -0.022712871 0.0072883326
0.76591432 -0.015136371 0.0055085411
0.77575451 -0.015901871 0.0043642861
0.78152215 -0.013991717 0.0067376932
0.77120686 -0.095388241 0.011369094
0.78015816 -0.09200035 0.016703326
0.75986767 -0.08485999 0.015099296
0.76799208 -0.085918352 0.012875397
0.77498627 -0.083855323 0.014117752
0.782525 -0.086953424 0.016447436
0.75657827 -0.072733402 0.012931257
0.76503533 -0.075497866 0.015064183
0.77310741 -0.077164851 0.012405575
0.74764627 -0.065013647 0.01389746
0.75664186 -0.064667627 0.014777422
0.76371109 -0.063135132 0.015042654
0.74791443 -0.056419741 0.013894694
0.75454807 -0.053609531 0.014402255
0.76123643 -0.052248716 0.014958658
0.74727201 -0.04494936 0.01386969
0.75434524 -0.045031648 0.014945243
0.76106 -0.041485503 0.014921072
0.75439042 -0.035767809 0.013217054
0.76186544 -0.031144174 0.014726634
0.75411272 -0.027087003 0.014105521
0.76660258 -0.023144584 0.014647076
0.7664836 -0.016298203 0.014252394
0.77447915 -0.015324853 0.014842773
0.78176701 -0.013990315 0.015235158
0.75760752 -0.082778253 0.022806108
0.74997604 -0.070839226 0.022573264
0.7547918 -0.076825649 0.022717988
0.76409763 -0.073842771 0.022799881
0.74815643 -0.065025374 0.022513513
0.75516927 -0.067480147 0.02284598
0.76432979 -0.064084902 0.022594221
0.74792504 -0.056415398 0.022494685
0.75513595 -0.055264365 0.021839803
0.74778271 -0.044949669 0.022474308
0.75227022 -0.047249366 0.022732645
0.76208174 -0.041486979 0.023307106
0.75540549 -0.035640489 0.021976298
0.75537133 -0.027046416 0.022790691
0.76376235 -0.023513213 0.022125399
0.76615924 -0.016302714 0.023039112
0.777053 -0.015196893 0.022636503
