# .PCD v0.7 - Point Cloud Data file format
VERSION 0.7
FIELDS x y z
SIZE 4 4 4
TYPE F F F
COUNT 1 1 1
WIDTH 199
HEIGHT 1
VIEWPOINT 0 0 0 1 0 0 0
POINTS 199
DATA ascii
0.74705076 -0.082978658 -0.050739795
0.74737692 -0.072650298 -0.051420987
0.7525509 -0.072612628 -0.052107003
0.74690843 -0.06728065 -0.051526669
0.76015401 -0.067394137 -0.05254009
0.74607509 -0.056599658 -0.051407333
0.75501466 -0.055998217 -0.053389862
0.74789548 -0.04093409 -0.051437143
0.75612277 -0.046930488 -0.052048966
0.75690967 -0.035096526 -0.052049976
0.77202916 -0.11372007 -0.042595454
0.75699139 -0.10033619 -0.04020096
0.76455891 -0.10655128 -0.043137956
0.77068591 -0.10546106 -0.045968592
0.75494772 -0.095774025 -0.045220073
0.76722419 -0.095247686 -0.042117085
0.74712044 -0.082975239 -0.043025739
0.75093764 -0.087979347 -0.04347869
0.76226997 -0.08665292 -0.044554345
0.74451423 -0.074313566 -0.042855944
0.75851035 -0.075522892 -0.046972413
0.74519742 -0.06352368 -0.043673918
0.75625062 -0.064607196 -0.046663124
0.74605465 -0.054726005 -0.044722646
0.75550258 -0.053844362 -0.046449393
0.74587536 -0.044756174 -0.041778166
0.75318152 -0.043993387 -0.044744585
0.75565767 -0.035040185 -0.0429345
0.76216561 -0.035308547 -0.048038878
0.75966996 -0.026327966 -0.043503005
0.76718551 -0.027181411 -0.04304738
0.77728891 -0.018746193 -0.041775715
0.78153145 -0.018419534 -0.041848145
0.76862007 -0.11518174 -0.034804501
0.77252048 -0.11527904 -0.031963024
0.78232628 -0.11046794 -0.031462818
0.75747389 -0.10040405 -0.031697061
0.7658096 -0.10707104 -0.033278253
0.77455777 -0.10560971 -0.036882266
0.74961197 -0.091513269 -0.031392977
0.75270599 -0.094956987 -0.035997823
0.76723462 -0.095245413 -0.036418047
0.74728739 -0.083603621 -0.035961103
0.75094432 -0.087972462 -0.034884416
0.76228541 -0.086649537 -0.036085784
0.74463773 -0.073814176 -0.034898613
0.75698745 -0.075466044 -0.038497739
0.74365807 -0.064101852 -0.033258203
0.75446469 -0.064566597 -0.038237248
0.74617672 -0.054640081 -0.034759749
0.75500035 -0.053840399 -0.038126078
0.74757874 -0.045927338 -0.034410305
0.75492746 -0.043798398 -0.033865407
0.74938214 -0.038058195 -0.034315672
0.75679141 -0.034373984 -0.033947453
0.76155323 -0.035115749 -0.038217414
0.75690264 -0.029305382 -0.034653377
0.76629746 -0.026223203 -0.035296272
0.77736485 -0.018658895 -0.034481574
0.78588921 -0.012520116 -0.036278855
0.76925659 -0.11203524 -0.023766875
0.77332604 -0.11582232 -0.023635045
0.75809562 -0.1014052 -0.024130184
0.76412868 -0.10694501 -0.024495138
0.77340686 -0.10125477 -0.028144512
0.78359926 -0.10767641 -0.025641961
0.75312966 -0.095462315 -0.025053844
0.7667408 -0.095211908 -0.027852863
0.74776614 -0.084577277 -0.0245743
0.75996262 -0.083775103 -0.027504591
0.76361626 -0.089471735 -0.02768898
0.74535477 -0.074086383 -0.023622816
0.75519407 -0.074496284 -0.028181188
0.74423921 -0.063994929 -0.02429774
0.75319803 -0.064536609 -0.027096599
0.74521559 -0.055358533 -0.024502063
0.75527924 -0.053836316 -0.027079191
0.74633533 -0.046170715 -0.025748571
0.7547462 -0.043813247 -0.024456361
0.74937201 -0.03806163 -0.025704248
0.75795966 -0.034354374 -0.025374299
0.76261401 -0.035090566 -0.027180295
0.7598995 -0.026328122 -0.026057245
0.76768064 -0.027192786 -0.025885148
0.77308428 -0.023856845 -0.020865686
0.76891738 -0.017295675 -0.023415467
0.77656394 -0.018128529 -0.027075648
0.77453172 -0.11401118 -0.016332909
0.75805062 -0.10144612 -0.010855401
0.76660997 -0.10813523 -0.013902488
0.77547657 -0.10423682 -0.016688744
0.75354272 -0.095497429 -0.014053951
0.76727098 -0.095237449 -0.016471418
0.74764907 -0.083655022 -0.01377092
0.76171482 -0.085689381 -0.01537065
0.74511528 -0.073853679 -0.013791266
0.75702918 -0.075453453 -0.016160639
0.74448591 -0.064455606 -0.013144148
0.75398976 -0.064549737 -0.016045399
0.7453568 -0.054857615 -0.013399746
0.75555807 -0.053832214 -0.016026584
0.74832582 -0.045925006 -0.014468741
0.75438571 -0.043836832 -0.013140194
0.75323415 -0.03733021 -0.014563227
0.76233959 -0.032871772 -0.014312594
0.76405191 -0.025587274 -0.014769748
0.77026093 -0.026874281 -0.016206311
0.76840693 -0.017316625 -0.014562253
0.77680588 -0.018743919 -0.015302462
0.78053147 -0.018452253 -0.016382454
0.77599752 -0.11048138 -0.00045070704
0.76629174 -0.10330071 -0.0024192373
0.78464627 -0.10774434 -0.008120955
0.75559258 -0.093646161 -0.0044191391
0.76275128 -0.098294802 -0.0024580588
0.77368093 -0.098438479 -0.0051113334
0.74748349 -0.082060933 -0.0062045171
0.7523675 -0.084584415 -0.0018469747
0.76540738 -0.086786404 -0.0050485153
0.74750638 -0.074420944 -0.0044748932
0.75113118 -0.074382737 -0.00042462919
0.76038331 -0.075561762 -0.0050078821
0.74719781 -0.066999011 -0.0059107076
0.75384885 -0.064780667 -0.0029324074
0.74829918 -0.055891819 -0.0044778017
0.75330919 -0.054044705 -0.0031881484
0.76003337 -0.056542031 -0.0022098327
0.74932522 -0.046687905 -0.0027382004
0.75487614 -0.045111563 -0.005477739
0.76165736 -0.043585643 -0.0026923781
0.75184858 -0.038054924 -0.0056294245
0.76278347 -0.035013326 -0.0049424763
0.7653715 -0.027182877 -0.0037579876
0.77431005 -0.02617918 -0.0036751044
0.77731651 -0.018717928 -0.0064843041
0.77750349 -0.11064453 0.0082763694
0.76990056 -0.10071969 0.0053509939
0.7727952 -0.10547768 0.0055292547
0.78822207 -0.10221908 0.0094532054
0.75968218 -0.092317261 0.0081724394
0.76403171 -0.09566164 0.0044052559
0.77293587 -0.09639357 0.0047606127
0.75616425 -0.084627308 0.0060957917
0.7692253 -0.084171854 0.0034606361
0.7528379 -0.074821733 0.0064291558
0.76475835 -0.07570558 0.0034220689
0.74976879 -0.066803403 0.0058633494
0.75447935 -0.064603686 0.0067339176
0.76252067 -0.064705357 0.0033884239
0.75380278 -0.056763913 0.0045408462
0.76179576 -0.053854287 0.0033620803
0.75734615 -0.047690578 0.0050297203
0.76572418 -0.043594144 0.0058999462
0.75634193 -0.038018558 0.00013156846
0.76447296 -0.037318032 0.0039666598
0.77156144 -0.034581322 0.0057188515
0.77630615 -0.026465181 0.0052055204
0.78433871 -0.023720199 0.0062479852
0.77747387 -0.11067148 0.017019136
0.76990741 -0.10071262 0.014173845
0.77203399 -0.10452848 0.016936293
0.78518164 -0.10201415 0.015259631
0.75965309 -0.092343681 0.016743779
0.76409221 -0.09644869 0.01509168
0.77570552 -0.092905894 0.012143271
0.75590223 -0.085387953 0.013961872
0.76924092 -0.084168449 0.011997765
0.75232702 -0.074809246 0.015013467
0.76579964 -0.075736612 0.01190115
0.74875879 -0.066774994 0.014457424
0.75188005 -0.065016106 0.01573907
0.7622788 -0.064696163 0.011789113
0.75362206 -0.056771457 0.014097591
0.76122802 -0.054748207 0.012651426
0.75682288 -0.04726781 0.015118715
0.76486897 -0.047561768 0.010809213
0.76366258 -0.037663389 0.015269336
0.77178764 -0.034050629 0.012917952
0.76684529 -0.029129142 0.014819325
0.77766961 -0.029350109 0.01184812
0.78468108 -0.024006434 0.014511298
0.77290815 -0.10091055 0.023083091
0.76484394 -0.094802119 0.024325812
0.77549076 -0.095704004 0.020793844
0.75640124 -0.084055014 0.022800513
0.7667042 -0.08405029 0.023292365
0.77391386 -0.089980595 0.020705862
0.74853355 -0.07068646 0.022280807
0.75087476 -0.075972281 0.022749409
0.76472199 -0.076608613 0.022232529
0.75090003 -0.065946326 0.022730842
0.76100612 -0.064670965 0.020158347
0.75280368 -0.055941753 0.022773037
0.76182628 -0.053847607 0.02009348
0.75608724 -0.04591405 0.02285126
0.76398987 -0.045764029 0.022874882
0.76867908 -0.038534306 0.022017727
0.76883507 -0.029093487 0.023695961
0.77771479 -0.026932208 0.021640856
