# .PCD v0.7 - Point Cloud Data file format
VERSION 0.7
FIELDS x y z
SIZE 4 4 4
TYPE F F F
COUNT 1 1 1
WIDTH 174
HEIGHT 1
VIEWPOINT 0 0 0 1 0 0 0
POINTS 174
DATA ascii
0.75778741 -0.071992591 -0.051898971
0.76519018 -0.057198964 -0.05256018
0.75046748 -0.040494088 -0.05133776
0.75696057 -0.021703001 -0.052464779
0.75323707 -0.017693937 -0.051481232
0.77211541 -0.0053949524 -0.052743088
0.78199553 -0.0033909362 -0.050289717
0.78394508 0.0018348941 -0.052926153
0.76565546 -0.082420446 -0.044623595
0.77410716 -0.08535476 -0.045358818
0.78059447 -0.088535808 -0.042582281
0.75763178 -0.072398871 -0.046064112
0.76577771 -0.073285677 -0.045292113
0.77350593 -0.077179871 -0.044800542
0.75402433 -0.062721469 -0.044937741
0.76055419 -0.062736325 -0.043840699
0.74707443 -0.050298791 -0.043431543
0.75378126 -0.053269789 -0.044165291
0.74783504 -0.04258021 -0.043057088
0.75529355 -0.043987427 -0.048070695
0.74804765 -0.03330506 -0.043413255
0.75384456 -0.033566095 -0.044432189
0.75427371 -0.025068369 -0.04493624
0.75509328 -0.016588485 -0.044454649
0.76306862 -0.014359702 -0.043862689
0.76852989 -0.0056859925 -0.043342419
0.77692467 -0.0036115767 -0.044098414
0.77830571 0.0033989078 -0.041580431
0.78399551 0.0046078097 -0.047150768
0.7837311 -0.094562128 -0.033398077
0.79053378 -0.095751666 -0.03814235
0.76464623 -0.082400054 -0.035873156
0.77396321 -0.085232064 -0.034006953
0.78234464 -0.087436177 -0.033524778
0.75748312 -0.072415121 -0.037528001
0.7636345 -0.074309006 -0.034423061
0.77352256 -0.077202857 -0.03613773
0.7499156 -0.061732247 -0.035114594
0.75642872 -0.063085601 -0.034314703
0.74706489 -0.050331548 -0.034936372
0.75265151 -0.052478794 -0.034067065
0.74782443 -0.042607039 -0.03456571
0.75337809 -0.043294836 -0.036413882
0.74628758 -0.033363018 -0.03482895
0.75277376 -0.035132643 -0.037144158
0.7543214 -0.024589445 -0.035587486
0.75630742 -0.014242281 -0.034745079
0.76349169 -0.014812983 -0.034259297
0.76641321 -0.0048503727 -0.035178702
0.7731387 -0.0037546866 -0.033431638
0.77390832 0.00083726633 -0.035264924
0.77647191 -0.094844893 -0.024685984
0.76413685 -0.082405627 -0.02715702
0.77312016 -0.085626885 -0.025060084
0.78455347 -0.083433896 -0.025002029
0.75595188 -0.072081499 -0.026057951
0.76427186 -0.073027372 -0.025831722
0.77353919 -0.077225849 -0.027474917
0.74890631 -0.061734013 -0.026554709
0.75595289 -0.063224971 -0.023775676
0.76007861 -0.062774077 -0.026845034
0.7480554 -0.050376348 -0.026479175
0.75350803 -0.0531203 -0.025338447
0.74756378 -0.042634267 -0.026066819
0.75407052 -0.043106824 -0.024119023
0.74727845 -0.033377308 -0.026381167
0.75325835 -0.033171654 -0.026569646
0.75423968 -0.024195764 -0.024857115
0.75597042 -0.014914498 -0.026781285
0.76234674 -0.014411518 -0.024766758
0.76797652 -0.0038739676 -0.026148491
0.77116883 -0.0056452039 -0.025041124
0.77874345 0.0049044439 -0.026737491
0.78297949 0.0048884898 -0.026923645
0.77518213 -0.090867803 -0.016791021
0.790429 -0.095785797 -0.014767369
0.76462352 -0.082473755 -0.01557997
0.7745617 -0.084145136 -0.01387531
0.78133786 -0.086386368 -0.015373956
0.75674099 -0.073463432 -0.015396073
0.76474577 -0.07318785 -0.013375563
0.7710318 -0.07716389 -0.015871312
0.75464523 -0.062432729 -0.013623914
0.76060843 -0.06281139 -0.015551326
0.7480427 -0.050417524 -0.015142114
0.75580513 -0.053942308 -0.014201291
0.74779963 -0.042671535 -0.014750591
0.75422072 -0.044046864 -0.013832678
0.74676561 -0.03342665 -0.015051835
0.75283122 -0.033667825 -0.014839955
0.75437433 -0.024222692 -0.014103939
0.75759435 -0.013995539 -0.014843052
0.76245952 -0.015370578 -0.012951594
0.76534963 -0.0065022656 -0.015418487
0.77089065 -0.0056900694 -0.013567498
0.7746712 0.0008277921 -0.015118761
0.78770965 0.0075526964 -0.015674667
0.76861137 -0.082713932 -0.0069134552
0.7749846 -0.08452744 -0.0047586788
0.78447312 -0.086350799 -0.0048144627
0.75974059 -0.07265757 -0.00488463
0.76770818 -0.07518211 -0.0016644782
0.77470022 -0.07750836 -0.0029605951
0.75553232 -0.062943496 -0.0029197643
0.76236409 -0.064920589 -0.0035120849
0.77067858 -0.069621041 -0.0033688038
0.75484627 -0.054493494 -0.0031935819
0.76139879 -0.056360271 -0.0032716864
0.74914175 -0.041951686 -0.0037700536
0.75515956 -0.044743054 -0.0030459503
0.75453138 -0.033589203 -0.0039127627
0.75511593 -0.023073988 -0.0041343733
0.76084298 -0.02422671 -0.0040957462
0.7648294 -0.014329821 -0.0034726132
0.76760483 -0.0070433151 -0.0066226125
0.77405757 -0.0052293125 -0.004157587
0.78300065 0.0016455073 -0.0070188832
0.79230404 0.002238337 -0.0013141697
0.77659351 -0.083173886 0.0048043756
0.78413117 -0.08406876 0.0085703395
0.76771343 -0.073988684 0.0047677886
0.77480739 -0.073967353 0.0059098504
0.78371912 -0.077681333 0.004334996
0.75836879 -0.062095717 0.0047371825
0.76430917 -0.063565575 0.0074287583
0.77172124 -0.067848369 0.0049070553
0.75825858 -0.054224178 0.0051074885
0.76243061 -0.054785743 0.0063321213
0.75536948 -0.044395477 0.005002242
0.76149344 -0.043640669 0.0063518342
0.75678837 -0.034143746 0.0051591205
0.76253086 -0.035171676 0.0042951116
0.75930184 -0.025491841 0.005206068
0.76441604 -0.026008362 0.0055500297
0.76685983 -0.015378105 0.0051876805
0.77196604 -0.0154811 0.0052657574
0.77776456 -0.0072276979 0.0050778636
0.78314245 -0.0047319354 0.0048054787
0.77658689 -0.083195277 0.010693857
0.78717464 -0.084269509 0.017361883
0.766954 -0.07398691 0.013482008
0.77541119 -0.074425243 0.014654396
0.78323001 -0.077686056 0.013102159
0.75885904 -0.062137917 0.013367641
0.76600009 -0.065131731 0.01557266
0.77081668 -0.063063502 0.011462858
0.75774783 -0.054243356 0.013708336
0.76336122 -0.054349057 0.01533992
0.75734121 -0.043153804 0.014788061
0.76140457 -0.045323256 0.013667682
0.75481004 -0.034574222 0.014236022
0.76305854 -0.035184629 0.012748872
0.75956011 -0.024071325 0.013837053
0.76506323 -0.025296496 0.015422625
0.76591134 -0.014030027 0.01409703
0.77081484 -0.015560536 0.015080219
0.77640659 -0.0064229877 0.014280041
0.78295791 -0.0039616763 0.010169267
0.76473355 -0.071015514 0.022149662
0.77778912 -0.071778782 0.021709748
0.78274083 -0.077690735 0.021861704
0.75934917 -0.062187783 0.02201331
0.76834512 -0.066493601 0.022430323
0.75725591 -0.05283406 0.022304866
0.764314 -0.057387784 0.021301398
0.75646609 -0.043036271 0.021887114
0.7629022 -0.049026977 0.021237724
0.7545864 -0.033969115 0.022173896
0.76154101 -0.035231661 0.021158848
0.75954926 -0.024100496 0.022464614
0.7657643 -0.02413382 0.021239245
0.76669455 -0.015422243 0.022217222
0.77007049 -0.011521718 0.023148447
0.77509642 -0.0064841914 0.022479495
