# .PCD v0.7 - Point Cloud Data file format
VERSION 0.7
FIELDS x y z
SIZE 4 4 4
TYPE F F F
COUNT 1 1 1
WIDTH 169
HEIGHT 1
VIEWPOINT 0 0 0 1 0 0 0
POINTS 169
DATA ascii
0.77423745 -0.090675414 -0.050436709
0.7524417 -0.066144042 -0.051126033
0.74759859 -0.054625463 -0.053626999
0.75072694 -0.054362252 -0.051430225
0.75213134 -0.043733105 -0.051408552
0.75545251 -0.033625752 -0.051955812
0.76261467 -0.038142815 -0.053162746
0.77842665 -0.020804452 -0.054119922
0.77421385 -0.015296223 -0.053775046
0.77676779 -0.10077833 -0.043319922
0.78162038 -0.10557724 -0.041282393
0.76742524 -0.091536976 -0.042402472
0.77575612 -0.093542777 -0.043065578
0.78406054 -0.096250072 -0.043344099
0.79106587 -0.096696593 -0.049707476
0.75771737 -0.082621701 -0.043187521
0.76698917 -0.085191973 -0.045177974
0.75583208 -0.073623344 -0.043604463
0.76458156 -0.075926185 -0.045965645
0.74864841 -0.062250715 -0.041218773
0.75437653 -0.063423052 -0.045202095
0.74812007 -0.0537038 -0.042604811
0.7532739 -0.053199682 -0.045176983
0.74872136 -0.044694111 -0.042629078
0.75310886 -0.04428402 -0.044410162
0.75506955 -0.034411035 -0.044444669
0.7575475 -0.025978887 -0.042448882
0.76390302 -0.022557231 -0.044248693
0.76447207 -0.017543506 -0.043512221
0.77228522 -0.012819106 -0.043084092
0.78212893 -0.10162754 -0.036114037
0.76765764 -0.091564193 -0.033728514
0.77551645 -0.094459154 -0.033953212
0.78263062 -0.097952925 -0.033884123
0.75771451 -0.082632229 -0.034541838
0.76574272 -0.085310638 -0.03482895
0.75608158 -0.072857454 -0.033502262
0.76464176 -0.077811122 -0.036398433
0.74839473 -0.06225618 -0.034089293
0.75505292 -0.063906707 -0.034147762
0.74761707 -0.053707704 -0.034044504
0.75406671 -0.054096796 -0.034121428
0.74924815 -0.04280635 -0.03535644
0.75359052 -0.045058653 -0.034635227
0.75402778 -0.03434201 -0.033453755
0.75877416 -0.026180334 -0.034445077
0.76432258 -0.021630865 -0.034620009
0.76636171 -0.016851394 -0.035296481
0.77241933 -0.012220392 -0.034369037
0.77793753 -0.0096746366 -0.033786546
0.78471494 -0.0044264598 -0.036537576
0.77599758 -0.10226832 -0.023276316
0.78005022 -0.1005056 -0.024060329
0.76764452 -0.091576234 -0.025042832
0.77419686 -0.094196714 -0.023874184
0.78301269 -0.097969249 -0.025082787
0.75736284 -0.082147554 -0.025402544
0.76248449 -0.086261846 -0.026354814
0.77288049 -0.086823352 -0.028102174
0.75467318 -0.074461661 -0.025127461
0.76360464 -0.075859383 -0.026770869
0.74850899 -0.064500168 -0.0254407
0.75530851 -0.063912243 -0.02564811
0.74811471 -0.053724512 -0.025529247
0.75349152 -0.053147152 -0.025132302
0.74908811 -0.042982209 -0.026061967
0.75397182 -0.04291293 -0.02562093
0.75535458 -0.03398373 -0.025390243
0.75890523 -0.024975589 -0.025330061
0.76308894 -0.023056056 -0.025969062
0.76616001 -0.017064029 -0.025597626
0.77454072 -0.012617484 -0.024932193
0.77818465 -0.0094151637 -0.028010931
0.78477073 -0.0044006207 -0.029191969
0.77612686 -0.10132425 -0.015412922
0.78005284 -0.10050087 -0.018125093
0.76720351 -0.092909411 -0.014230414
0.77313119 -0.093660153 -0.014485013
0.78262454 -0.097933136 -0.014802257
0.75769281 -0.082174256 -0.014850874
0.76491183 -0.0852101 -0.013532657
0.77797669 -0.089970574 -0.016565187
0.75460011 -0.073525101 -0.01369412
0.7625922 -0.074854054 -0.016216841
0.74839729 -0.066147134 -0.015233114
0.75478214 -0.063053302 -0.014411652
0.7484864 -0.053744629 -0.014154011
0.75364643 -0.052678514 -0.014281698
0.74899673 -0.043008368 -0.013382752
0.75447643 -0.042894244 -0.01430603
0.75451273 -0.034102216 -0.01438592
0.75972998 -0.023531385 -0.01433531
0.76289636 -0.024613917 -0.013940357
0.764961 -0.017560646 -0.01443092
0.77416456 -0.013449153 -0.014664948
0.77820683 -0.0093909819 -0.013572874
0.78558826 -0.0052089342 -0.017577274
0.77738446 -0.094578154 -0.0024198648
0.78467733 -0.096630096 -0.0060025686
0.79058915 -0.09360972 -0.0019241659
0.75883049 -0.080892771 -0.0053816559
0.76641297 -0.082984857 -0.0029642519
0.77554917 -0.086420812 -0.0042976793
0.75726795 -0.07209526 -0.0033026813
0.76311684 -0.074366331 -0.0024116894
0.77072853 -0.077991389 -0.0018988245
0.75584221 -0.062949993 -0.0038291784
0.76341629 -0.06630788 -0.0018985744
0.7551769 -0.053255666 -0.0035898853
0.75607944 -0.043373108 -0.0024726072
0.76048493 -0.040887959 -0.0047626011
0.75667357 -0.033700734 -0.0042152642
0.76132917 -0.0322535 -0.0034324524
0.76591527 -0.023889989 -0.0044649648
0.76799381 -0.017931903 -0.006194971
0.77564234 -0.015514851 -0.0039389781
0.78025466 -0.0092799505 -0.0078180991
0.77820653 -0.093662918 0.0062754918
0.78300369 -0.094952725 0.0055979062
0.79406124 -0.090811819 0.0040515373
0.76728517 -0.085216902 0.0042692316
0.77558023 -0.084871978 0.0046681548
0.76479393 -0.074542008 0.0060739317
0.77476001 -0.078140348 0.0039200019
0.75752944 -0.064790882 0.0059547871
0.76291913 -0.064273514 0.004287438
0.75678182 -0.053862363 0.0058395299
0.76181126 -0.052943647 0.0042709284
0.75778842 -0.04378558 0.0058564614
0.76417983 -0.044654623 0.007542803
0.76494956 -0.033116009 0.0047335546
0.76756018 -0.025397211 0.0038356378
0.7746768 -0.022692507 0.0059266998
0.7774623 -0.017695626 0.0040792199
0.78320748 -0.014532156 0.0049667857
0.77619547 -0.093556985 0.012165098
0.78189129 -0.09323696 0.01536133
0.76660329 -0.083500914 0.014729048
0.77403045 -0.08661446 0.015277621
0.78092062 -0.084217027 0.012790251
0.75848007 -0.070714541 0.016405292
0.76488572 -0.07473667 0.014538439
0.77405906 -0.076179847 0.011674959
0.75630581 -0.062497497 0.01445544
0.76213956 -0.063203163 0.014214005
0.75652885 -0.053870574 0.014470903
0.76091301 -0.053192344 0.014625762
0.75678521 -0.043798339 0.014483725
0.76197302 -0.041424401 0.015579541
0.76302582 -0.033745978 0.014877786
0.7661413 -0.029603582 0.014681055
0.77316016 -0.022952639 0.014582518
0.77545655 -0.017213143 0.014861287
0.78144413 -0.014883064 0.012496175
0.77920312 -0.090958752 0.024997009
0.76650095 -0.082005292 0.022999555
0.77421373 -0.084975325 0.024866372
0.78394777 -0.084343731 0.021697262
0.75815761 -0.071191192 0.02312373
0.76663113 -0.074112147 0.022067545
0.75730401 -0.062530585 0.023118339
0.76489174 -0.063477509 0.021042097
0.75627577 -0.053882569 0.023098473
0.7610752 -0.052087542 0.020866508
0.75653231 -0.04380659 0.023116436
0.76280367 -0.040825132 0.020844987
0.76420051 -0.032235999 0.022516841
0.77200454 -0.023724059 0.020994097
0.78451276 -0.014738852 0.021284575
