# .PCD v0.7 - Point Cloud Data file format
VERSION 0.7
FIELDS x y z
SIZE 4 4 4
TYPE F F F
COUNT 1 1 1
WIDTH 152
HEIGHT 1
VIEWPOINT 0 0 0 1 0 0 0
POINTS 152
DATA ascii
0.75907987 -0.0019060344 -0.065479271
0.77387255 -0.072895266 -0.052426983
0.76572686 -0.065165348 -0.050109256
0.74789155 -0.054108925 -0.051737405
0.75237286 -0.048497554 -0.052065071
0.74624813 -0.03711395 -0.051704839
0.74802369 -0.024303194 -0.051883344
0.75466675 -0.018412435 -0.05200319
0.75800967 -0.0078779422 -0.053335212
0.76178795 -0.0063017304 -0.050770469
0.77715081 -0.08268337 -0.043746009
0.78481615 -0.082763262 -0.042346224
0.76828188 -0.073446907 -0.045304239
0.77515018 -0.076142713 -0.043908738
0.75639099 -0.063020766 -0.044138938
0.76372021 -0.066264071 -0.044187143
0.75635326 -0.056536078 -0.045032032
0.74763894 -0.040239606 -0.044247564
0.75317711 -0.045503523 -0.045009147
0.74792641 -0.035881191 -0.044201013
0.74566138 -0.028629433 -0.043166459
0.75094199 -0.026445262 -0.045172993
0.74882251 -0.017159339 -0.043382604
0.753748 -0.015184236 -0.043855142
0.75665736 -0.005982602 -0.043794397
0.76075 -0.0039301268 -0.044109076
0.76755399 0.0026594335 -0.044351611
0.77278388 0.0077988924 -0.044398353
0.77955729 0.010909555 -0.043758553
0.77988976 -0.084107757 -0.033068165
0.78270948 -0.082636669 -0.03353383
0.76778984 -0.071970738 -0.035395194
0.77490455 -0.077708572 -0.034316324
0.75700521 -0.063039422 -0.035543226
0.76336426 -0.0662385 -0.035536837
0.75448966 -0.055275142 -0.03512824
0.74828207 -0.045777272 -0.035211496
0.75355369 -0.044267237 -0.034109447
0.74775189 -0.035875652 -0.035672408
0.74789435 -0.025613261 -0.034292378
0.75124925 -0.028999833 -0.032800563
0.7483061 -0.017194675 -0.034771688
0.75302899 -0.015713692 -0.035467356
0.75652337 -0.0059903562 -0.035870306
0.76070315 -0.0063233268 -0.033436593
0.75991946 0.00037606223 -0.03644282
0.76694852 0.0026233734 -0.034613665
0.7747646 0.0079406248 -0.032704014
0.77604103 0.010491324 -0.034657549
0.78828967 0.017400596 -0.03830811
0.78333247 -0.083494529 -0.024575727
0.76634711 -0.072529241 -0.027789675
0.77351165 -0.076144122 -0.025265163
0.75673974 -0.063033015 -0.026903447
0.7625165 -0.066198342 -0.026876701
0.75435054 -0.054980021 -0.026551511
0.74777448 -0.044224344 -0.027128994
0.75318795 -0.042855363 -0.024338422
0.7472496 -0.031666446 -0.027191011
0.75002134 -0.035955023 -0.028185464
0.74751115 -0.028114649 -0.027113441
0.75223464 -0.02897677 -0.024357477
0.74829042 -0.017212642 -0.02618886
0.753582 -0.016121715 -0.025867317
0.75714934 -0.0062519684 -0.026544714
0.76463753 -0.0033107498 -0.027842931
0.76530409 0.0020750288 -0.026359139
0.77398485 0.007909514 -0.023837173
0.77653712 0.010698105 -0.029042654
0.78036577 0.013496563 -0.025504943
0.77885246 -0.084082395 -0.018261384
0.76647061 -0.07254044 -0.016164847
0.77575094 -0.077208765 -0.015603523
0.75671816 -0.063027523 -0.015397798
0.76267189 -0.066186823 -0.015380342
0.75583452 -0.055837423 -0.015937317
0.74710822 -0.042905997 -0.016027065
0.75266123 -0.046006478 -0.014137162
0.74760598 -0.032586932 -0.016763046
0.75054049 -0.035933245 -0.016883809
0.74753469 -0.026805624 -0.016051708
0.75205237 -0.026446797 -0.014016676
0.74952149 -0.017197054 -0.014762956
0.75403893 -0.015423193 -0.015273054
0.75646204 -0.0061489157 -0.015591532
0.76233214 -0.0043097087 -0.013628247
0.76757336 0.0040510613 -0.016203128
0.77261543 0.0057499143 -0.015007249
0.77916914 0.010740932 -0.017869618
0.76962477 -0.072022952 -0.0063749072
0.77476978 -0.074355654 -0.0048064897
0.78299022 -0.074937545 -0.0010948922
0.76409876 -0.064647056 -0.0048287986
0.7724871 -0.067438401 -0.0029324545
0.7573446 -0.056833513 -0.0043663699
0.76356941 -0.055836897 -0.0036222523
0.75414813 -0.04503746 -0.0042865239
0.76083231 -0.045612801 -0.0017004894
0.75368285 -0.035464995 -0.0037637195
0.75427771 -0.028305745 -0.0044968496
0.75591546 -0.016079186 -0.0046292916
0.76194501 -0.013871911 -0.0020529854
0.7585637 -0.0075041624 -0.0084811393
0.7646777 -0.0048267529 -0.0043708445
0.77020931 -0.0059108655 -0.0017844395
0.7726475 0.0036267538 -0.0044080773
0.77757883 0.010799523 -0.0086756134
0.77587295 -0.071420938 0.0042465413
0.78270912 -0.074928686 0.0062299576
0.76529884 -0.062290709 0.0049737957
0.77375269 -0.066491157 0.0048292503
0.75885803 -0.054431211 0.0052698553
0.7658146 -0.056146976 0.0043303999
0.75700504 -0.044876885 0.0045706686
0.76138151 -0.046385363 0.0049269879
0.75678855 -0.0343986 0.0048363046
0.76038551 -0.031669665 0.0011281945
0.75683147 -0.025269022 0.0041419961
0.76121366 -0.026049506 0.0039892402
0.75835848 -0.016960958 0.0068984665
0.76278162 -0.015285891 0.0045567239
0.76863503 -0.0048933146 0.0054881433
0.77249265 -0.0049659722 0.0051868497
0.7782011 0.0022221289 0.0030011854
0.77590805 -0.072550848 0.014483783
0.78851819 -0.077281922 0.018821361
0.76569676 -0.062838838 0.01321763
0.77272892 -0.067366615 0.012926063
0.75884211 -0.054449346 0.013932678
0.7646383 -0.055825137 0.013105475
0.75565243 -0.044861943 0.013188613
0.76181769 -0.04674672 0.014786649
0.75679386 -0.035241462 0.01265735
0.76091582 -0.034447365 0.018275909
0.75466514 -0.02420925 0.013281023
0.76116735 -0.026038932 0.015448189
0.75767994 -0.016459355 0.014200166
0.76260442 -0.014450635 0.013007507
0.76700586 -0.0054880586 0.013278957
0.77388829 -0.0027704937 0.013848422
0.78430003 0.0067018862 0.014086109
0.76505578 -0.062390178 0.021599408
0.75882626 -0.054467481 0.022595502
0.76337194 -0.055147037 0.021034531
0.75726104 -0.044332419 0.021053502
0.75701129 -0.035012469 0.020793932
0.75527114 -0.023374179 0.021360209
0.75848663 -0.017849818 0.020790048
0.76204962 -0.012952336 0.020134078
0.76529908 -0.0057582357 0.022092434
0.774378 -0.0008809329 0.020426977
0.78331769 0.0066550262 0.021454001
