# .PCD v0.7 - Point Cloud Data file format
VERSION 0.7
FIELDS x y z
SIZE 4 4 4
TYPE F F F
COUNT 1 1 1
WIDTH 171
HEIGHT 1
VIEWPOINT 0 0 0 1 0 0 0
POINTS 171
DATA ascii
0.77421397 -0.090626068 -0.053097568
0.76293725 -0.071930863 -0.052857373
0.76225722 -0.066349983 -0.052548878
0.75507075 -0.046591923 -0.052014269
0.74878758 -0.035962667 -0.051234677
0.74906063 -0.025359791 -0.050925355
0.75564957 -0.017021498 -0.052122016
0.77572793 -0.091542572 -0.043264285
0.76815158 -0.082771204 -0.043807887
0.77555507 -0.08417698 -0.043662589
0.78393614 -0.086046346 -0.043687969
0.75872445 -0.073632136 -0.043262463
0.76564109 -0.075674191 -0.043595243
0.75421381 -0.063169792 -0.043446597
0.76325667 -0.065603569 -0.046563022
0.74777257 -0.056160804 -0.044070803
0.75439948 -0.051875681 -0.0452241
0.74669361 -0.044211127 -0.042509314
0.75463796 -0.046415646 -0.047217965
0.74810797 -0.033890326 -0.043686938
0.75561869 -0.038343549 -0.04719137
0.74848592 -0.025228947 -0.043836292
0.75344867 -0.024616778 -0.044519465
0.75625867 -0.0143643 -0.043456525
0.76444447 -0.015326144 -0.047501612
0.7583639 -0.0092171915 -0.042922162
0.76325262 -0.0054218923 -0.043854345
0.77346414 -0.0023042392 -0.044807009
0.76865494 0.0017224225 -0.040897101
0.77758694 0.0056516505 -0.042965934
0.77489901 -0.085140698 -0.034634747
0.78395921 -0.086023591 -0.037844248
0.75793403 -0.071767986 -0.035185643
0.76549143 -0.076250277 -0.034739949
0.77283001 -0.076996036 -0.031483885
0.75410825 -0.064595379 -0.034406755
0.76380736 -0.065579295 -0.036700852
0.7480132 -0.056182913 -0.034110963
0.75412858 -0.054554924 -0.036743835
0.74580723 -0.044211503 -0.033925839
0.75760233 -0.049092609 -0.039064366
0.74632013 -0.032859314 -0.035392135
0.75461715 -0.03832702 -0.038816869
0.74873042 -0.023660202 -0.034028769
0.75311321 -0.024598563 -0.036012448
0.75537872 -0.014390626 -0.034785938
0.76303703 -0.014904915 -0.036290374
0.75785142 -0.0092524458 -0.034166224
0.76224685 -0.0054631084 -0.035102688
0.77450228 -0.0022438816 -0.034769971
0.76888782 0.0034383177 -0.035371948
0.77621228 0.0044039055 -0.033942576
0.78232992 0.00456517 -0.030103391
0.77236623 -0.090047881 -0.024138335
0.7675575 -0.08388032 -0.026896171
0.77629894 -0.084292114 -0.025483709
0.78348494 -0.085964106 -0.029053425
0.7587074 -0.073666096 -0.024492981
0.7636826 -0.074967146 -0.026655979
0.77080739 -0.078469925 -0.023436213
0.75323188 -0.063808091 -0.02595132
0.74864119 -0.054166544 -0.026188124
0.75826967 -0.055853672 -0.027955987
0.74566293 -0.043503083 -0.02539026
0.75419945 -0.04634048 -0.0277567
0.7469247 -0.033893596 -0.02558188
0.75595361 -0.038265791 -0.027787223
0.74785584 -0.024730243 -0.025302321
0.75325227 -0.025520889 -0.026608979
0.75537699 -0.014376514 -0.026168868
0.76342034 -0.014850525 -0.027500536
0.75733918 -0.0092895515 -0.025425524
0.7634443 -0.0044237557 -0.025962248
0.77329797 -0.0027720423 -0.028287584
0.76989222 0.0035326355 -0.029567605
0.77542907 0.0038102467 -0.023643546
0.78147328 0.0031238159 -0.025739485
0.79019749 0.0091535281 -0.023160273
0.77856714 -0.093926564 -0.017096443
0.77462602 -0.086547852 -0.014682428
0.78709376 -0.086095579 -0.017462717
0.75820172 -0.073662668 -0.015818397
0.76469642 -0.074993037 -0.015108566
0.77241367 -0.078170449 -0.015399598
0.75322551 -0.064005926 -0.014279786
0.74915391 -0.05316934 -0.013899792
0.75960964 -0.059916008 -0.0167941
0.74592251 -0.044579007 -0.01463013
0.75568736 -0.048095368 -0.015768737
0.74706966 -0.033563226 -0.014042214
0.75599748 -0.038222585 -0.016692152
0.74842596 -0.027913291 -0.01114409
0.75214744 -0.024169756 -0.015115283
0.75575083 -0.014341129 -0.014686458
0.76326329 -0.015263801 -0.016839333
0.75757378 -0.0092966538 -0.013798767
0.76324582 -0.0053800745 -0.014840854
0.77272975 -0.0023247981 -0.016062314
0.773444 0.0024393944 -0.014410575
0.78098321 0.0031229991 -0.017237892
0.77477777 -0.082237616 -0.0039049643
0.78194028 -0.085369736 -0.0048548733
0.76622152 -0.074092641 -0.003634885
0.77254164 -0.074772745 -0.0042485483
0.75529927 -0.062191214 -0.0050566397
0.76336759 -0.064924076 -0.0031639731
0.75299257 -0.054511994 -0.003114522
0.76032346 -0.057151511 -0.0083866054
0.74882072 -0.042947877 -0.0061682155
0.75366074 -0.047139149 -0.0032662232
0.74944133 -0.03776741 -0.0041618575
0.75441027 -0.034476966 -0.0045657032
0.76099598 -0.034515709 -0.0037857527
0.75413543 -0.025970701 -0.0043901992
0.76501364 -0.021848129 -0.0029234905
0.75740033 -0.016614687 -0.0046117762
0.76411134 -0.014111017 -0.0046874485
0.76863319 -0.0060189604 -0.0035559295
0.77772373 -0.0031576001 -0.0050359727
0.78413671 -0.0013325389 -0.00040231631
0.77390993 0.0039107264 -0.0061978633
0.78174281 0.0038195234 -0.0045416327
0.77928615 -0.082328252 0.0065555554
0.77441573 -0.076433539 0.0044981968
0.78317493 -0.077251688 0.0030119866
0.76357937 -0.06402462 0.0044123428
0.77300596 -0.068429038 0.0029378273
0.75767058 -0.055829067 0.0058329091
0.76858568 -0.057215642 0.0028649673
0.75566542 -0.046869699 0.0057919072
0.76342034 -0.044855777 0.0027839199
0.75481677 -0.035694081 0.0058017089
0.76337004 -0.032648355 0.0027165799
0.75630695 -0.025460066 0.0062088408
0.7650193 -0.023664616 0.0040099947
0.764117 -0.015667833 0.0058068717
0.77384388 -0.013393726 0.0054559521
0.76830572 -0.0080166254 0.0055963537
0.77719086 -0.0049382858 0.0059432909
0.78537589 -0.0033018296 0.0054751146
0.77653134 -0.08445397 0.011269136
0.76790595 -0.072273135 0.017013561
0.77408099 -0.077123903 0.015081542
0.78378153 -0.076288275 0.010764371
0.76197875 -0.065469854 0.015206805
0.77303994 -0.06839557 0.011531982
0.75676584 -0.055816982 0.014471092
0.76658344 -0.057148382 0.017004266
0.7542941 -0.046210498 0.01442149
0.76364273 -0.04480391 0.015416526
0.75397521 -0.035694558 0.01441548
0.76495612 -0.0325878 0.011124015
0.75712973 -0.025030524 0.01489877
0.76870662 -0.021670742 0.011082865
0.76242208 -0.015718861 0.014519544
0.77232534 -0.013418466 0.01668651
0.7685833 -0.0079252869 0.014441427
0.77699798 -0.0057314932 0.014622448
0.77986318 -0.074206203 0.02035825
0.76389199 -0.0656128 0.023347514
0.77102679 -0.068305738 0.020074962
0.75779706 -0.056784183 0.023161514
0.75440747 -0.046837255 0.023037335
0.74702805 -0.035495192 0.023550108
0.75577772 -0.034372054 0.022741629
0.76435882 -0.031660575 0.021370066
0.75935519 -0.025707088 0.022661813
0.76358747 -0.022660587 0.022162801
0.76226747 -0.016926322 0.022873227
0.76830578 -0.0079231933 0.023127533
0.77662903 -0.0016392715 0.023330228
