# .PCD v0.7 - Point Cloud Data file format
VERSION 0.7
FIELDS x y z
SIZE 4 4 4
TYPE F F F
COUNT 1 1 1
WIDTH 109
HEIGHT 1
VIEWPOINT 0 0 0 1 0 0 0
POINTS 109
DATA ascii
0.7598542 -0.074122168 -0.052328758
0.75420552 -0.065797627 -0.05290895
0.74934226 -0.058600597 -0.05261039
0.75088912 -0.051297072 -0.05191908
0.74731863 -0.049903952 -0.055209924
0.74505764 -0.037217759 -0.051646054
0.75028449 -0.037592642 -0.05350671
0.74398166 -0.028794773 -0.051645391
0.75029743 -0.022986695 -0.052120782
0.75322342 -0.01432131 -0.052392013
0.77929431 -0.092271715 -0.041752513
0.77449411 -0.086229146 -0.044462971
0.76187152 -0.076984182 -0.044260263
0.75332057 -0.067176305 -0.044282861
0.74883616 -0.058581866 -0.04405205
0.74543345 -0.048690245 -0.043890305
0.74452674 -0.037434131 -0.043875746
0.74520975 -0.02609171 -0.043713581
0.74969381 -0.017541587 -0.044231288
0.753317 -0.01170655 -0.044452704
0.75819683 -0.0057404246 -0.044753417
0.76224059 -4.1772611e-05 -0.045615859
0.76807153 0.0034977181 -0.04241658
0.77725279 -0.092147 -0.035795599
0.77199394 -0.086572938 -0.033576522
0.76271069 -0.077492788 -0.036117587
0.75206834 -0.066762634 -0.035932634
0.74883485 -0.058568284 -0.035523888
0.74517965 -0.04867702 -0.035387047
0.74414724 -0.037429079 -0.035372548
0.74444938 -0.026107362 -0.035177156
0.74767792 -0.017613614 -0.035585638
0.75306094 -0.011707537 -0.03584972
0.75794023 -0.0057432302 -0.036091376
0.76123929 -7.7540055e-05 -0.036920615
0.76938838 0.00095143344 -0.033027776
0.77278233 0.0064697335 -0.037465543
0.77622753 -0.092085443 -0.029906668
0.7719816 -0.086560383 -0.026257623
0.7621969 -0.077451184 -0.027421322
0.75223714 -0.066749185 -0.027367493
0.74782532 -0.05854065 -0.026961461
0.74454737 -0.048662808 -0.02687829
0.74427068 -0.037414074 -0.02689733
0.74536401 -0.026072672 -0.026716292
0.74842942 -0.017568069 -0.027084228
0.75280809 -0.011702733 -0.027252434
0.75727248 -0.0059933597 -0.02813183
0.76311225 -0.0052360725 -0.026910519
0.7638129 0.00036789535 -0.026203072
0.77178043 0.0064267539 -0.028659791
0.7754963 -0.086731851 -0.017574187
0.76282996 -0.077464566 -0.01586521
0.75290489 -0.066738389 -0.015946431
0.74882555 -0.058536708 -0.015629297
0.74517071 -0.048644673 -0.015578177
0.74502075 -0.037387751 -0.015601628
0.74577451 -0.026051521 -0.015386528
0.74984974 -0.017664433 -0.016487166
0.75254458 -0.01353171 -0.015544239
0.75828898 -0.0058957813 -0.016682414
0.76117182 -0.0026788446 -0.017428601
0.76583034 0.0005232633 -0.016100388
0.77257872 0.0038296226 -0.014748696
0.77571607 -0.080548123 -0.00068614911
0.76529056 -0.076155901 -0.0053424817
0.75725156 -0.06616427 -0.0044041555
0.75340486 -0.056154069 -0.0030849737
0.74850696 -0.047850605 -0.0059690466
0.75045455 -0.048489496 -0.0035379627
0.7479676 -0.037801068 -0.0047632288
0.75166672 -0.034337264 -0.00069316506
0.74856555 -0.027427223 -0.0057359627
0.75280762 -0.024830544 -0.0025957911
0.75325602 -0.017391618 -0.0046070111
0.76581597 -0.010939606 -0.00068124227
0.75783247 -0.009679867 -0.0061443523
0.76364768 -0.006816173 -0.0044261022
0.7710858 -0.004841751 -0.00067720492
0.77434456 0.0037887187 -0.0067904331
0.77570707 -0.080549732 0.0051652724
0.7694627 -0.075054161 0.003744819
0.77321053 -0.074918933 0.0074049099
0.76146203 -0.065268293 0.0054584295
0.75669062 -0.0572097 0.004319251
0.75293416 -0.045764327 0.0045273844
0.75199783 -0.035851207 0.0042580874
0.75425768 -0.024920084 0.0039878264
0.76277834 -0.012633731 0.0042942506
0.76787651 -0.005274191 0.0034590133
0.77740127 0.0011132346 0.0034895495
0.77569813 -0.080551341 0.011016695
0.76791847 -0.07471621 0.014622558
0.75992829 -0.065647006 0.013672578
0.7629177 -0.068997338 0.012402467
0.75543988 -0.058135763 0.013397698
0.75321138 -0.048625696 0.012862096
0.75136852 -0.036603156 0.012434874
0.75425833 -0.024897277 0.012577441
0.75950879 -0.016985813 0.013790307
0.76309383 -0.011155887 0.014445097
0.76605332 -0.0072687753 0.011189583
0.75458354 -0.060155857 0.020832878
0.75452799 -0.057016466 0.022162162
0.75222427 -0.044843849 0.021162873
0.74947655 -0.037201107 0.022086052
0.75056374 -0.034496516 0.020570492
0.75459313 -0.02487044 0.021182047
0.760499 -0.016953137 0.022507083
