# .PCD v0.7 - Point Cloud Data file format
VERSION 0.7
FIELDS x y z
SIZE 4 4 4
TYPE F F F
COUNT 1 1 1
WIDTH 168
HEIGHT 1
VIEWPOINT 0 0 0 1 0 0 0
POINTS 168
DATA ascii
0.77451849 -0.086429596 -0.050322548
0.74447513 -0.06381882 -0.051687926
0.74689436 -0.052633893 -0.051435102
0.74407035 -0.035550274 -0.051439866
0.7460534 -0.026973305 -0.051596392
0.75104183 -0.021117486 -0.051956005
0.7514959 -0.018069819 -0.052953258
0.75871342 -0.0096742101 -0.050013304
0.76068288 -0.003854386 -0.05019702
0.76158047 -0.091328524 -0.045241434
0.77107835 -0.099751145 -0.041883938
0.75683051 -0.087183185 -0.041118324
0.76590508 -0.08267349 -0.043651428
0.77656382 -0.089387007 -0.041733284
0.74965513 -0.078200087 -0.043594152
0.75548077 -0.072631702 -0.044606619
0.76317489 -0.077407636 -0.049665872
0.7438066 -0.063809238 -0.043120917
0.75187039 -0.065200038 -0.044668548
0.74624175 -0.053032678 -0.042570274
0.74483448 -0.043656614 -0.043974176
0.74452507 -0.03598782 -0.044805374
0.74765033 -0.026453819 -0.044066049
0.75161844 -0.021069517 -0.046578631
0.75279075 -0.014935036 -0.045118827
0.76336414 -0.01178539 -0.044399064
0.75683838 -0.009563664 -0.043930937
0.76396978 -0.0047682612 -0.043115873
0.77177393 -9.336439e-05 -0.045581754
0.76732516 0.0025583252 -0.043124236
0.78058577 0.0062199286 -0.04314493
0.77519673 -0.10596143 -0.033232555
0.76395124 -0.093418904 -0.035672519
0.77107507 -0.099758796 -0.03306108
0.78482306 -0.095614217 -0.036284581
0.75682837 -0.087188192 -0.035343088
0.76729453 -0.083932444 -0.035491712
0.77653825 -0.089415498 -0.033036221
0.74965191 -0.07820753 -0.035011299
0.75627869 -0.07444451 -0.034604698
0.76107943 -0.077354245 -0.035285048
0.74609107 -0.063147664 -0.034652546
0.75107265 -0.065882407 -0.034101885
0.74565166 -0.053023744 -0.034057632
0.74336672 -0.044441272 -0.034157701
0.74402815 -0.036199898 -0.034950629
0.74680489 -0.025792956 -0.033630781
0.75127423 -0.023669641 -0.035549171
0.74962234 -0.015713004 -0.037966367
0.75250787 -0.014410242 -0.034419496
0.76436031 -0.011751559 -0.035694849
0.75866246 -0.0097309668 -0.032687757
0.76552325 -0.0038328462 -0.03490153
0.76763695 0.0022366289 -0.036068864
0.76294661 -0.093361259 -0.02689093
0.77062619 -0.095411412 -0.026922733
0.78376645 -0.095570378 -0.027471263
0.74970442 -0.081071578 -0.02643471
0.75582385 -0.087138079 -0.026649131
0.76508063 -0.082392648 -0.026696974
0.77342457 -0.089248583 -0.024249509
0.74608934 -0.075202428 -0.026305722
0.75564724 -0.073006421 -0.025899956
0.74520987 -0.064093314 -0.025913566
0.75198823 -0.06653741 -0.025665944
0.74539357 -0.05301683 -0.025569109
0.74434221 -0.043833509 -0.025659973
0.74457711 -0.03645983 -0.025259195
0.7471087 -0.026377095 -0.025016164
0.7516647 -0.023185447 -0.027478717
0.75357085 -0.014687401 -0.026211521
0.76435703 -0.011759164 -0.026929135
0.75706565 -0.0095584271 -0.023730503
0.76471758 -0.0033613236 -0.026705863
0.77223617 -0.0055267829 -0.024250327
0.76660401 0.0021530862 -0.027240658
0.7731908 0.0039865091 -0.025181064
0.76494515 -0.093501844 -0.0152884
0.77387607 -0.095607862 -0.016700581
0.75581956 -0.0871481 -0.015106276
0.76455182 -0.083010525 -0.016909765
0.77452368 -0.088166177 -0.013234749
0.74829161 -0.077212811 -0.015906166
0.75597429 -0.07301531 -0.014459041
0.76513004 -0.079494923 -0.013515814
0.74525803 -0.064575166 -0.014675518
0.75208265 -0.064985372 -0.014935494
0.74586296 -0.052713323 -0.014590815
0.74410468 -0.044951122 -0.014923016
0.74432296 -0.036556862 -0.015371455
0.74663365 -0.025810635 -0.01371375
0.75153005 -0.023650534 -0.015599402
0.75384337 -0.014355477 -0.014460664
0.7623539 -0.011852103 -0.015202336
0.75557351 -0.009916259 -0.012423917
0.76572764 -0.0032985518 -0.014427908
0.77201945 -0.0027864706 -0.017458938
0.76999474 0.0030776709 -0.01803497
0.77109271 0.0023511897 -0.012686191
0.77198982 -0.095940895 -0.0046367827
0.75870538 -0.081544176 -0.00068795407
0.76599741 -0.086320609 -0.0048387153
0.77235597 -0.083788134 -0.0065433532
0.78019792 -0.085984237 -0.0021177295
0.75678653 -0.07445839 -0.0046169278
0.76538026 -0.076168217 -0.0030324499
0.74706393 -0.065770425 -0.0044646268
0.75536221 -0.064205408 -0.0032218508
0.7487852 -0.055520419 -0.0040977653
0.75146627 -0.053341612 -0.002919283
0.74622214 -0.045456342 -0.0043365033
0.75064242 -0.041040126 -0.00097978511
0.74730295 -0.035144672 -0.0045661861
0.75075078 -0.034191564 -0.0033829929
0.75329018 -0.025848936 -0.004498323
0.75605935 -0.018035389 -0.0038672728
0.76285279 -0.011386917 -0.0043790853
0.77234244 -0.011450914 -0.00063636561
0.76582319 -0.0051978957 -0.0054928525
0.77114183 -0.0057516126 -0.0021403562
0.77358431 0.0024588702 -0.0038731885
0.77094626 -0.093911178 0.0051763416
0.76426655 -0.084749542 0.0051384759
0.77586281 -0.082500979 0.0057386979
0.7565884 -0.075674981 0.0050934972
0.76654375 -0.074034244 0.0047226246
0.77491504 -0.078586698 0.0050232545
0.75561929 -0.063977651 0.0059115272
0.76221859 -0.067652822 0.0056451168
0.75361812 -0.054418869 0.0050944397
0.75176871 -0.045167271 0.005437064
0.75273275 -0.037010048 0.0047331671
0.75598949 -0.026725769 0.0052372948
0.7617892 -0.023384597 0.0044168755
0.76364088 -0.015415057 0.0046133609
0.7743389 -0.011373285 0.0052825413
0.7683298 -0.0090995226 0.0066698017
0.77246857 -0.0042079161 0.0045225192
0.76351237 -0.084717691 0.013870372
0.7804721 -0.0841657 0.016371118
0.75558412 -0.075640067 0.013734112
0.76634747 -0.07507775 0.014142667
0.77375931 -0.078151233 0.016265839
0.75669128 -0.065020837 0.014578655
0.75321519 -0.05441289 0.013665719
0.74907643 -0.049641829 0.01364568
0.75207663 -0.043673236 0.014111593
0.75219876 -0.035929289 0.013302648
0.75620264 -0.025968805 0.014286123
0.76057088 -0.023584576 0.013893505
0.76323736 -0.015434277 0.013822475
0.77433449 -0.011383558 0.017122537
0.76730728 -0.0091445092 0.015435223
0.77440733 -0.0044778413 0.014577233
0.75658196 -0.075690016 0.022419205
0.76595205 -0.07480783 0.021262042
0.74835122 -0.063924119 0.022190167
0.75612819 -0.064122014 0.022862073
0.76045668 -0.065994225 0.02105833
0.75247508 -0.054929476 0.021646554
0.75148183 -0.046514958 0.021892972
0.74957126 -0.035332989 0.022611676
0.75189656 -0.038009852 0.02253069
0.75479013 -0.0264873 0.0219499
0.75765723 -0.017677424 0.020709038
0.76547933 -0.011707585 0.021964047
0.76556045 -0.009643428 0.025292426
0.77421117 -0.0055386322 0.021105966
