# .PCD v0.7 - Point Cloud Data file format
VERSION 0.7
FIELDS x y z
SIZE 4 4 4
TYPE F F F
COUNT 1 1 1
WIDTH 163
HEIGHT 1
VIEWPOINT 0 0 0 1 0 0 0
POINTS 163
DATA ascii
0.78375208 -0.084112048 -0.05250806
0.75122565 -0.060103163 -0.052296959
0.76259267 -0.069354527 -0.05586401
0.75344992 -0.054627471 -0.052439988
0.751647 -0.045257997 -0.052395213
0.74631232 -0.034819409 -0.053430799
0.74984211 -0.026348637 -0.052293006
0.75225234 -0.023463754 -0.052433584
0.74491209 -0.017982237 -0.057654761
0.75515944 -0.014846779 -0.052629549
0.77238619 -0.011515064 -0.056553692
0.77637887 -0.0055458979 -0.056918744
0.7753011 0.0033722771 -0.053937025
0.78303105 -0.090403818 -0.042585943
0.77844197 -0.082665101 -0.043375243
0.76782811 -0.073131248 -0.042921979
0.77302682 -0.074496046 -0.045612674
0.75555503 -0.063060187 -0.043991018
0.76303577 -0.065538049 -0.044506803
0.75460404 -0.054609478 -0.044297215
0.74810314 -0.046051651 -0.043584973
0.75167066 -0.044464651 -0.044852752
0.74798393 -0.03612157 -0.04360079
0.75144559 -0.033929683 -0.044580948
0.74849242 -0.024529159 -0.042737942
0.75286698 -0.0248926 -0.045007985
0.74988365 -0.017796814 -0.04378365
0.75406432 -0.014953376 -0.04388294
0.76024646 -0.011962416 -0.049914472
0.75739986 -0.0065090074 -0.043860894
0.76405096 -0.0029294125 -0.043536287
0.76676989 0.0026566507 -0.044399168
0.7743271 0.0053330911 -0.04790543
0.77534974 0.012646536 -0.048273209
0.78174567 0.011066625 -0.042565823
0.7830314 -0.090404265 -0.036650702
0.77756608 -0.082174435 -0.033188246
0.78439695 -0.084763139 -0.035271164
0.76780921 -0.073138639 -0.03425996
0.77486211 -0.07703685 -0.035055451
0.75752687 -0.063286066 -0.035465159
0.76356256 -0.066271842 -0.035163425
0.75381374 -0.054674771 -0.034908917
0.74818474 -0.043921106 -0.03569714
0.75061893 -0.043038383 -0.032029573
0.74725229 -0.035837214 -0.035129976
0.75112748 -0.031918306 -0.032129612
0.7477833 -0.024764787 -0.03509941
0.75173545 -0.025160775 -0.033828959
0.74986768 -0.017792279 -0.035235088
0.75382316 -0.014387113 -0.034199286
0.75630027 -0.0072060204 -0.0355318
0.76268893 -0.0030013106 -0.033816207
0.76658624 0.0029596407 -0.03600572
0.7757411 0.0076163318 -0.032494411
0.77808344 0.011304066 -0.036465958
0.77847606 -0.080909848 -0.024408087
0.78646344 -0.086319335 -0.024496306
0.76562017 -0.074915871 -0.027144667
0.77185535 -0.074117601 -0.025466466
0.75809717 -0.063061289 -0.025816508
0.76364112 -0.067458309 -0.027402928
0.75364 -0.054675743 -0.026358398
0.74758756 -0.046048973 -0.026538767
0.75155962 -0.044743545 -0.025328718
0.74797821 -0.036761239 -0.026674261
0.75033939 -0.031936631 -0.023618983
0.74784845 -0.02640269 -0.02573196
0.75127769 -0.024717607 -0.025788937
0.74935198 -0.017805541 -0.026667932
0.75411528 -0.014964294 -0.025347196
0.75650412 -0.0065550953 -0.026637798
0.76367903 -0.0029627045 -0.026130134
0.7662434 0.0029359364 -0.026318118
0.77515751 0.0060374308 -0.021646749
0.77707845 0.011222882 -0.027713258
0.77778518 -0.08220166 -0.012744753
0.78592181 -0.086300753 -0.015705079
0.76867127 -0.073188096 -0.014060378
0.77407646 -0.07651417 -0.016461825
0.75764334 -0.06424439 -0.015847817
0.76368147 -0.06628526 -0.014993105
0.75419396 -0.055000648 -0.014661424
0.74832761 -0.046046495 -0.015208108
0.75268316 -0.044752102 -0.014041215
0.74720788 -0.036123998 -0.015195305
0.75142527 -0.034978595 -0.014012756
0.74838716 -0.028021283 -0.016837897
0.7511856 -0.02417255 -0.014109105
0.74983579 -0.01778321 -0.018137978
0.75372916 -0.014778527 -0.014615037
0.75773287 -0.0064921714 -0.015854897
0.76354885 -0.0036170643 -0.013246099
0.76699561 0.0029838991 -0.015713749
0.77715057 0.0061475579 -0.015798369
0.77776062 0.010771822 -0.01743928
0.78791291 -0.080728233 -0.0040292959
0.76904958 -0.072125413 -0.0039308541
0.77375311 -0.076399766 -0.0070793461
0.78172332 -0.07473167 -0.0010759488
0.75828499 -0.06216922 -0.0048451629
0.76500541 -0.063962556 -0.0047996496
0.77175874 -0.068657793 -0.0028292537
0.75665396 -0.053382497 -0.0041514379
0.76047325 -0.056080356 -0.0041735684
0.75380737 -0.045150325 -0.0039562131
0.75322032 -0.035214692 -0.0039530718
0.75424975 -0.025138032 -0.0039775856
0.75655174 -0.016020842 -0.0052015912
0.76111108 -0.011988036 -0.0039010276
0.75951481 -0.0063847159 -0.0070315273
0.76563114 -0.0063277632 -0.0016448807
0.76828921 0.00078295695 -0.0046786405
0.77356273 0.0043915049 -0.0052560554
0.78015411 0.011439838 -0.0074190306
0.77655977 -0.072393693 0.0048577162
0.78374577 -0.074835338 0.0076789162
0.76782799 -0.062003851 0.0053427732
0.77626973 -0.069304347 0.0046443739
0.75933194 -0.053256422 0.0047473642
0.7634545 -0.053662498 0.0047164331
0.75624275 -0.044626862 0.0047239293
0.76087946 -0.045189116 0.0045042783
0.75644606 -0.03570715 0.0045244428
0.76090479 -0.03186857 0.0047017592
0.75734288 -0.026183352 0.0045288317
0.76364005 -0.020473648 0.0076222266
0.75844634 -0.017265789 0.0047412817
0.76183629 -0.015890999 0.0062569026
0.76704234 -0.0076082707 0.0045967894
0.77285624 -0.003654192 0.0055945166
0.77386546 0.00076416734 0.0048599504
0.78216666 0.00051326118 0.0078557041
0.77505833 -0.072340839 0.01365924
0.78475219 -0.074889161 0.01354015
0.76599598 -0.062810913 0.013904962
0.77598667 -0.069450915 0.01337221
0.75914866 -0.054691214 0.013381846
0.76385552 -0.054348085 0.0146959
0.75652915 -0.045064792 0.014227659
0.76070619 -0.044820413 0.014435985
0.75544286 -0.035721894 0.013096442
0.76086861 -0.031884041 0.016162645
0.75617242 -0.026213309 0.013103805
0.76209462 -0.020521337 0.016237812
0.75853604 -0.016929543 0.014417897
0.7614764 -0.011557937 0.010547176
0.76636505 -0.0079713017 0.014064318
0.77396548 -0.0011100378 0.013289012
0.77185237 0.00065195234 0.013658172
0.78157711 0.0031313372 0.014876015
0.76635587 -0.060618177 0.021890836
0.77547479 -0.068841308 0.024985777
0.75808561 -0.054501496 0.021997334
0.76069731 -0.054876812 0.022061106
0.75708014 -0.046181709 0.021727884
0.75543833 -0.035721555 0.0216759
0.75550008 -0.02622938 0.021671498
0.75823551 -0.016620679 0.021751506
0.76606923 -0.011844492 0.025062604
0.76654243 -0.0060875993 0.021688014
0.77670676 -0.0016335725 0.022590656
0.77655208 0.0042691631 0.02259111
