# .PCD v0.7 - Point Cloud Data file format
VERSION 0.7
FIELDS x y z
SIZE 4 4 4
TYPE F F F
COUNT 1 1 1
WIDTH 127
HEIGHT 1
VIEWPOINT 0 0 0 1 0 0 0
POINTS 127
DATA ascii
0.75360775 -0.083290756 -0.051633067
0.7613501 -0.088304006 -0.053348843
0.74851066 -0.073389493 -0.052300442
0.74681634 -0.065592997 -0.051482346
0.74588299 -0.054244351 -0.052329395
0.74445766 -0.043914139 -0.05126974
0.74431401 -0.036349528 -0.053431999
0.74163401 -0.02720499 -0.053272419
0.75413895 -0.024859309 -0.051895697
0.75467283 -0.016524162 -0.052144568
0.77583838 -0.10350838 -0.041352056
0.76317573 -0.093016736 -0.043967288
0.77050966 -0.098339677 -0.041693754
0.75513351 -0.085359745 -0.043248765
0.74778938 -0.073186748 -0.043035556
0.75131518 -0.079491682 -0.043723136
0.74539965 -0.064631701 -0.042877555
0.74310929 -0.053313527 -0.042713821
0.74362373 -0.043934699 -0.042723935
0.74622697 -0.036767587 -0.043181814
0.74999779 -0.029929919 -0.042413507
0.75435758 -0.023813916 -0.043862086
0.75818086 -0.016404983 -0.043704376
0.76384151 -0.013619925 -0.043169431
0.76917487 -0.0091494983 -0.040622894
0.77719438 -0.10326307 -0.032891206
0.75860769 -0.091729566 -0.035225134
0.76662791 -0.096085355 -0.033999451
0.75559932 -0.086112224 -0.034660753
0.74841297 -0.074840672 -0.034576483
0.75102091 -0.078638002 -0.03458159
0.74465007 -0.064629875 -0.034332175
0.74436545 -0.053347886 -0.034290124
0.74328899 -0.043956131 -0.034219261
0.74566942 -0.035481717 -0.034307633
0.74955863 -0.025321566 -0.034642287
0.75311399 -0.024589384 -0.034346264
0.75968778 -0.016362162 -0.035101034
0.76362449 -0.014055192 -0.03508551
0.77153921 -0.0083441399 -0.033853866
0.77115446 -0.10359782 -0.024739403
0.7809878 -0.10861152 -0.029181445
0.76587832 -0.09478838 -0.025649112
0.77105153 -0.099200018 -0.025907239
0.75459599 -0.084916644 -0.026235595
0.76012462 -0.089887872 -0.025536422
0.74779004 -0.074834332 -0.026004003
0.75101936 -0.078661785 -0.026027344
0.74439931 -0.06464421 -0.025823981
0.74338323 -0.05388613 -0.025449887
0.74341923 -0.04428355 -0.025887184
0.7456708 -0.035502341 -0.025797514
0.7520957 -0.024798607 -0.025822222
0.75787717 -0.016566632 -0.026445478
0.76355517 -0.012824932 -0.026122171
0.7721653 -0.0083407918 -0.025090143
0.77419084 -0.10309847 -0.015148522
0.76577818 -0.095033623 -0.015745157
0.77027655 -0.099185251 -0.014259646
0.75543523 -0.08498928 -0.014767315
0.7606191 -0.089960597 -0.014054618
0.74728876 -0.073234923 -0.014573169
0.75127631 -0.079077266 -0.014671568
0.74507165 -0.064691983 -0.01450729
0.74386692 -0.053393751 -0.014456333
0.74362689 -0.04400279 -0.014429434
0.7460916 -0.035523623 -0.01445794
0.74653 -0.02828774 -0.014558425
0.7533778 -0.023974504 -0.014743892
0.75947893 -0.016587626 -0.015041651
0.76487416 -0.012628652 -0.014291816
0.77205598 -0.0088579301 -0.016805913
0.76611024 -0.091379322 -0.003323999
0.77115214 -0.097071111 -0.0062861852
0.75766706 -0.082847163 -0.0051793419
0.76355112 -0.087381408 -0.0036943094
0.75301838 -0.075392812 -0.0041825133
0.7482909 -0.064240545 -0.0046167877
0.75222868 -0.067923397 -0.0010721041
0.74720502 -0.053584456 -0.003162649
0.74641633 -0.044964988 -0.0040745935
0.75068837 -0.040502056 -0.0014111763
0.74641335 -0.036849577 -0.0060239416
0.75193089 -0.034847889 -0.0024913286
0.75625163 -0.025555449 -0.0037216793
0.76060867 -0.022770582 -0.0040776478
0.76513362 -0.016890621 -0.0040531191
0.77190936 -0.013246578 -0.0021069199
0.77480394 -0.0099323932 -0.0032787593
0.77503824 -0.092866801 0.002269547
0.76462287 -0.083990104 0.0043245037
0.77140129 -0.088960275 0.0047278455
0.75573361 -0.074016504 0.0050132768
0.76209557 -0.079253756 0.0054121017
0.75413114 -0.065543793 0.0038540943
0.75138861 -0.054482415 0.005398314
0.75232172 -0.04499967 0.0054294779
0.75513959 -0.03578138 0.0052772067
0.75915772 -0.02706556 0.00054100837
0.7634331 -0.025311479 0.0057573491
0.77281588 -0.015184742 0.0050740549
0.7745983 -0.093249567 0.01351453
0.75930721 -0.080239102 0.014080646
0.76539433 -0.084795654 0.013907644
0.75598896 -0.074042782 0.013654766
0.76091987 -0.079727314 0.013363841
0.75317663 -0.065052204 0.01435218
0.74914092 -0.056873143 0.013938203
0.75138819 -0.053302094 0.013969251
0.75190359 -0.045019638 0.014006667
0.75438315 -0.035337619 0.013389269
0.75684506 -0.02763268 0.01455343
0.76390082 -0.022844339 0.014272758
0.769728 -0.016063629 0.01436125
0.77558714 -0.012320491 0.013606246
0.75781399 -0.08018481 0.022746056
0.76725537 -0.085846208 0.022238873
0.75756997 -0.075613834 0.022672812
0.7609266 -0.079744972 0.022049531
0.75275254 -0.064041086 0.02257132
0.75105721 -0.054518551 0.022539124
0.74926966 -0.048309207 0.02253898
0.75184178 -0.043405622 0.022574686
0.75359231 -0.036793519 0.022078237
0.76246291 -0.023871066 0.022948392
0.76856226 -0.016302485 0.02265612
0.77615839 -0.010400306 0.022385281
