# .PCD v0.7 - Point Cloud Data file format
VERSION 0.7
FIELDS x y z
SIZE 4 4 4
TYPE F F F
COUNT 1 1 1
WIDTH 179
HEIGHT 1
VIEWPOINT 0 0 0 1 0 0 0
POINTS 179
DATA ascii
0.77101165 -0.080035314 -0.050747033
0.76475173 -0.071391806 -0.050449952
0.75683808 -0.064777315 -0.051038578
0.74422604 -0.050892171 -0.05028357
0.75305963 -0.053042911 -0.0527271
0.7502616 -0.043832947 -0.051702898
0.74475396 -0.035329133 -0.050867237
0.75258809 -0.032278795 -0.050129253
0.75261784 -0.024906039 -0.051586181
0.75485516 -0.015714729 -0.051244095
0.7600655 -0.018126534 -0.056500614
0.75384098 -0.0064634769 -0.054298747
0.76045614 -0.0086200181 -0.053373571
0.77620941 -0.090779886 -0.041475229
0.79172748 -0.092608631 -0.040185072
0.76993316 -0.083314426 -0.046096768
0.77171421 -0.083679125 -0.042378508
0.76382208 -0.075758062 -0.043789521
0.74915135 -0.060862608 -0.043003444
0.75525832 -0.066531003 -0.042967651
0.74585849 -0.054231107 -0.042186439
0.75324577 -0.056149442 -0.043522343
0.74495053 -0.043322816 -0.04343003
0.75165898 -0.043374807 -0.045715757
0.74380183 -0.038399972 -0.042844996
0.75102019 -0.032304503 -0.041560207
0.74438697 -0.028920917 -0.04286832
0.75343657 -0.021111287 -0.041788563
0.74728537 -0.017051084 -0.042687502
0.75426126 -0.015337221 -0.042677842
0.75562131 -0.0069111637 -0.043332081
0.7642169 -0.0035496398 -0.043027725
0.76682693 0.0034699861 -0.043194216
0.77092993 0.0091103073 -0.045322176
0.77332002 0.010699715 -0.040582854
0.78860009 -0.0924014 -0.034193307
0.76866072 -0.084537141 -0.035270795
0.77533406 -0.084130518 -0.034061261
0.78132844 -0.086264521 -0.039736554
0.75461096 -0.072400875 -0.034671426
0.76359844 -0.075203776 -0.035108872
0.74863815 -0.060857229 -0.034435958
0.75450033 -0.065802708 -0.034362793
0.7453475 -0.054239925 -0.033639167
0.75256199 -0.055286635 -0.033972654
0.7444464 -0.043320335 -0.034918539
0.75108612 -0.043390401 -0.03300938
0.743047 -0.038417712 -0.034327641
0.75047028 -0.032324031 -0.033063293
0.74421406 -0.028931791 -0.034360483
0.75390172 -0.021113608 -0.033283785
0.74799514 -0.017333409 -0.034270562
0.75886166 -0.012533741 -0.033547983
0.75467026 -0.0063592116 -0.034582157
0.76338899 -0.0049191471 -0.034523755
0.77483881 -0.00042376667 -0.031347733
0.76425511 0.0035839337 -0.033807203
0.77093995 0.0061430493 -0.034664363
0.7772001 -0.09085463 -0.026804537
0.78649139 -0.092271626 -0.025359496
0.76978517 -0.08398886 -0.024624664
0.77482599 -0.085235156 -0.024325108
0.7636708 -0.076602116 -0.026151631
0.74862766 -0.060864225 -0.025898827
0.75565875 -0.067277499 -0.02583969
0.74517125 -0.054252122 -0.025114724
0.75243568 -0.056749772 -0.025795212
0.7445724 -0.043313056 -0.026439127
0.7525751 -0.043416426 -0.024603432
0.74392891 -0.038409069 -0.025884541
0.75042874 -0.032338649 -0.024594842
0.74396247 -0.028939785 -0.02585707
0.75335288 -0.021140717 -0.024737364
0.74767631 -0.01735335 -0.025706718
0.75831324 -0.012564715 -0.024929184
0.75503945 -0.0063495897 -0.02596234
0.76336408 -0.0049290308 -0.027266677
0.77176678 -0.00058060233 -0.022461049
0.76589757 0.0024236348 -0.024661044
0.7709505 0.0091481833 -0.027943181
0.77918559 0.015521826 -0.025303461
0.77819425 -0.090926982 -0.015048119
0.76990712 -0.083394282 -0.016839741
0.7737577 -0.08356525 -0.014240665
0.78223175 -0.086374566 -0.013664341
0.76491129 -0.075826347 -0.015482718
0.74911642 -0.060885943 -0.014523469
0.75578594 -0.066575535 -0.014403322
0.76351464 -0.068636924 -0.013421723
0.74697542 -0.055618782 -0.013708958
0.75272304 -0.05611835 -0.015069653
0.74520004 -0.043304816 -0.015139584
0.75252038 -0.043439675 -0.01330835
0.74455869 -0.038410299 -0.014590863
0.75240725 -0.032340445 -0.013329749
0.74487895 -0.028926531 -0.014549621
0.7538206 -0.022084203 -0.014321635
0.74735445 -0.017851856 -0.014775535
0.75930113 -0.015383333 -0.012036175
0.75628239 -0.0063071186 -0.014467567
0.76507831 -0.0048582898 -0.01422146
0.77222848 -0.00057215523 -0.013685795
0.76598763 0.0034098581 -0.015939767
0.77248478 0.0092834365 -0.016388586
0.77379668 -0.084244609 -0.0056665568
0.78261501 -0.080781251 -0.0020312208
0.76722956 -0.073690414 -0.0027892338
0.7706514 -0.078225285 -0.0053852317
0.7572363 -0.066607364 -0.0055191331
0.76452887 -0.069625147 -0.0024077003
0.74679565 -0.051704101 -0.0054291761
0.75515103 -0.056433029 -0.0024723469
0.76234215 -0.059363354 -0.0029802152
0.74795967 -0.041027077 -0.0031147939
0.75281876 -0.046206329 -0.0022785312
0.74713445 -0.036434658 -0.0051252772
0.75643581 -0.032332819 -0.0048565273
0.74748147 -0.02850266 -0.0035025175
0.75318539 -0.026284734 -0.0047135744
0.76184696 -0.02005852 -0.001037003
0.75234443 -0.017709173 -0.003555625
0.76231515 -0.013677733 -0.0025651942
0.7575596 -0.0084029865 -0.0037583392
0.76361275 -0.003842409 -0.0045781466
0.77084768 -0.0060537765 -0.0025858185
0.77064282 0.005053727 -0.0035123772
0.77510452 -0.076525174 0.0041025621
0.76596642 -0.066181928 0.0047181784
0.77163136 -0.069012195 0.0065910481
0.75696391 -0.057380144 0.0053549954
0.76122236 -0.054716364 0.0065146629
0.74897099 -0.048250463 0.00080903294
0.75444955 -0.045583885 0.0053303055
0.7487756 -0.03971678 0.0036926379
0.75605965 -0.035378009 0.0052531245
0.74860018 -0.028303757 0.0037286305
0.75420308 -0.026043251 0.0044512544
0.76238662 -0.025241319 0.0066162469
0.75792044 -0.015803201 0.0057694023
0.76057893 -0.017841399 0.0055573164
0.77283704 -0.012152441 0.0067750989
0.76363993 -0.0079915933 0.0053524477
0.77400696 -0.0050210357 0.0051967031
0.77208012 0.00071010506 0.0039577805
0.77894688 -0.084000096 0.018472515
0.76361156 -0.07280045 0.014203159
0.7735495 -0.076864555 0.013705129
0.76404637 -0.066635944 0.014596578
0.77056229 -0.068984479 0.015200254
0.75595593 -0.057361651 0.013968634
0.76169163 -0.054741196 0.015068943
0.74995387 -0.044669967 0.014565412
0.75499105 -0.046041578 0.014270564
0.74826366 -0.039746236 0.015117387
0.75651556 -0.037491493 0.013819199
0.74934125 -0.028320514 0.015183815
0.75510502 -0.025719041 0.013668874
0.76228684 -0.021017125 0.015254833
0.75591397 -0.015879536 0.014389758
0.76183009 -0.014909222 0.014298882
0.77140611 -0.010286555 0.01648921
0.7656396 -0.0070709647 0.014509377
0.77472937 -0.006306489 0.012681217
0.77310342 0.0007949397 0.012688796
0.76892227 -0.071841739 0.024151083
0.77342552 -0.077870265 0.024256736
0.7582401 -0.066268928 0.023307044
0.76542109 -0.065696299 0.02155376
0.75512892 -0.057340696 0.022558821
0.76261294 -0.058708869 0.022535266
0.74993479 -0.041046403 0.022584787
0.75361568 -0.048761498 0.022533255
0.74925959 -0.039773159 0.02371919
0.75514382 -0.039805584 0.021125669
0.75349492 -0.026823567 0.022603901
0.75563216 -0.016853087 0.023026915
0.7608189 -0.014952333 0.02300333
0.76388848 -0.0054346551 0.021188047
0.77697027 0.0039229435 0.021506483
