# .PCD v0.7 - Point Cloud Data file format
VERSION 0.7
FIELDS x y z rgb
SIZE 4 4 4 4
TYPE F F F U
COUNT 1 1 1 1
WIDTH 172
HEIGHT 1
VIEWPOINT 0 0 0 1 0 0 0
POINTS 172
DATA ascii
0.73453844 -0.090623386 -0.060898628 4290100430
0.74550003 -0.09399952 -0.063189998 4290956510
0.74200004 -0.085280001 -0.062893339 4290297810
0.73700005 -0.079393342 -0.062469527 4290560468
0.74650002 -0.054236669 -0.063274764 4289706172
0.76262116 -0.11466531 -0.05404149 4289445072
0.74525404 -0.10085821 -0.053707846 4291022045
0.75352299 -0.10493354 -0.054826785 4290957278
0.76000005 -0.10941906 -0.055733338 4289970129
0.74451065 -0.093409769 -0.05386417 4290168021
0.73777223 -0.083345369 -0.054522023 4289772749
0.74191684 -0.084441856 -0.05505655 4289970644
0.73677981 -0.074836105 -0.055847786 4288719806
0.74231821 -0.073680356 -0.054765787 4288917693
0.7392993 -0.063639633 -0.050393704 4289114822
0.74465454 -0.063394994 -0.055630498 4290824407
0.74475724 -0.055222671 -0.055230796 4290561751
0.75145561 -0.050862603 -0.054801781 4291219941
0.7483083 -0.049595159 -0.055358842 4290429650
0.75215995 -0.04479856 -0.053249102 4290562524
0.76221037 -0.041919809 -0.058331896 4291549159
0.76149774 -0.038029861 -0.053453222 4290364889
0.77000004 -0.034000002 -0.053533334 4290035928
0.75525826 -0.1131966 -0.040059149 4287336090
0.76590979 -0.11537756 -0.046811134 4287796902
0.75358319 -0.10300499 -0.046074204 4289247175
0.76010722 -0.10917789 -0.046459191 4288653233
0.74712825 -0.094155379 -0.045720726 4289510351
0.73628896 -0.083267428 -0.041733857 4289312971
0.74395156 -0.08560919 -0.0455679 4289115854
0.70764899 -0.07444039 -0.044566996 4287995315
0.71223271 -0.074452952 -0.044967517 4288785858
0.74402004 -0.063377663 -0.045726106 4289904338
0.74500006 -0.057061907 -0.043280955 4289838546
0.75182629 -0.050866403 -0.046288878 4290034896
0.75550008 -0.045719527 -0.043889053 4289379020
0.7642163 -0.041919865 -0.049841467 4289507268
0.75800002 -0.039946668 -0.041148573 4288786110
0.76167023 -0.039001964 -0.043779694 4288982464
0.75826907 -0.11348046 -0.031540319 4286611592
0.76548767 -0.11394975 -0.03671436 4287401619
0.75305033 -0.10366029 -0.035862915 4289050052
0.76100004 -0.10950381 -0.035513334 4288387752
0.7450608 -0.093342461 -0.035166979 4289444816
0.73729616 -0.083325058 -0.036158998 4289509584
0.74628901 -0.085819207 -0.036222089 4289378254
0.70420521 -0.073999807 -0.03562909 4289510095
0.71028888 -0.078588575 -0.037654672 4289575118
0.71161586 -0.069945671 -0.039599989 4289837515
0.73969448 -0.063659027 -0.034867901 4289706962
0.74554193 -0.06439437 -0.033709735 4289641168
0.74321908 -0.055834968 -0.034926642 4289772752
0.75181305 -0.050864421 -0.036324132 4289706701
0.74733448 -0.04959356 -0.035272792 4289772751
0.75389355 -0.044500303 -0.035472412 4289246407
0.76722836 -0.041920446 -0.038477253 4289180100
0.76267588 -0.038998131 -0.033654328 4288783808
0.76422417 -0.11344291 -0.02565524 4286808193
0.75415421 -0.10336899 -0.024587972 4289246661
0.76000005 -0.10941906 -0.026780954 4288849321
0.7453441 -0.093468361 -0.022898948 4289444815
0.70287436 -0.081998356 -0.026593791 4289377741
0.74647295 -0.085757263 -0.023220126 4289377997
0.70422626 -0.074996486 -0.026139554 4289642195
0.73866928 -0.062690519 -0.023043904 4289509837
0.74458164 -0.065415189 -0.022231678 4289444047
0.74367261 -0.056144271 -0.024243798 4289444301
0.75088501 -0.052250333 -0.027729493 4289444558
0.74735117 -0.049598731 -0.022415657 4289509324
0.75708199 -0.046181276 -0.025588356 4289246149
0.76289272 -0.0419094 -0.025277592 4288720064
0.76218164 -0.039002679 -0.024906542 4288454833
0.75729185 -0.11339398 -0.014120901 4283319105
0.76500005 -0.11567143 -0.018214287 4283780167
0.75315076 -0.10343883 -0.012689129 4289246917
0.76000005 -0.10941906 -0.015200002 4289112234
0.74390978 -0.093062431 -0.012903147 4289510353
0.74400008 -0.085388571 -0.014883811 4289180617
0.70525217 -0.075562768 -0.017305654 4289839318
0.70350003 -0.067110002 -0.014071906 4289509841
0.73784536 -0.06360887 -0.015013196 4289443786
0.74250007 -0.062678576 -0.014848096 4289443532
0.74368 -0.056146555 -0.012891422 4289378253
0.75197387 -0.051286861 -0.014944437 4289443530
0.74736601 -0.049603324 -0.010987099 4289311947
0.75418615 -0.044809908 -0.013104083 4289179843
0.76252258 -0.038027011 -0.012786212 4287403429
0.75830686 -0.11349212 -0.002549869 4283843642
0.76700002 -0.11585619 -0.0065742861 4283712078
0.77129745 -0.11550283 -0.0093376972 4283317803
0.7548297 -0.10310659 -0.0049473951 4289378506
0.76159513 -0.10930693 -0.0064176335 4288455849
0.74600005 -0.094030477 -0.003554286 4289510864
0.75021356 -0.094412662 -0.0090462351 4289379795
0.7053932 -0.080045767 -0.0091959964 4289773266
0.74364054 -0.08558549 -0.0020826119 4289377999
0.69834137 -0.073164128 -0.0099527566 4290102492
0.70489824 -0.073300242 -0.0062963958 4290169055
0.69835019 -0.065152705 -0.0099495472 4289312205
0.70318025 -0.066205323 -0.0026624631 4289641428
0.74505901 -0.064483173 -0.0062973364 4289509582
0.74500006 -0.057061907 -0.0035476193 4289312715
0.75000006 -0.051428575 -0.0035714288 4289312714
0.75646222 -0.046628106 -0.0050413311 4289114823
0.76513481 -0.041907288 -0.0094896881 4288786628
0.76200002 -0.039920002 -0.0036323809 4288720064
0.77130771 -0.036162082 -0.009617269 4284771976
0.76297307 -0.11293577 0.0056054019 4286216839
0.7523036 -0.10360682 0.0041457107 4289180866
0.76100004 -0.10950381 0.0050733336 4288719018
0.74172658 -0.091701031 0.0047917296 4289708245
0.7500937 -0.095775805 0.003576867 4289707988
0.74200004 -0.085280001 0.0049466668 4289378768
0.705553 -0.07439319 0.0035584606 4291221480
0.70768714 -0.066352211 0.0067559695 4289510872
0.74337786 -0.063417673 0.0044806553 4289641169
0.74392015 -0.055857148 0.0048102387 4289510352
0.75084859 -0.052244902 0.0035523686 4289443787
0.74738646 -0.049609646 0.004727175 4289444046
0.75467604 -0.045268372 0.0041435403 4289114567
0.76409501 -0.041901749 0.0020669589 4288786628
0.75889909 -0.038117051 0.0047230003 4288522424
0.76100004 -0.039926667 0.0050733336 4288786110
0.76275587 -0.1125879 0.015878612 4287007384
0.75311476 -0.103286 0.015214548 4289443785
0.76100004 -0.10950381 0.013770477 4288850610
0.74367815 -0.091632247 0.015482128 4289774295
0.75044656 -0.095340252 0.014366447 4289904851
0.74641263 -0.085746214 0.016209088 4289905627
0.70618474 -0.077086002 0.012135597 4291023847
0.71270126 -0.075162038 0.014094912 4291878637
0.71194065 -0.066488534 0.013576615 4289708506
0.74464273 -0.06464541 0.015292433 4289774294
0.7466343 -0.056976378 0.015751297 4289707731
0.75246018 -0.052533463 0.014439799 4289575632
0.74840325 -0.049624491 0.017604906 4289575376
0.75692517 -0.046179578 0.015319444 4289246408
0.76202887 -0.041892707 0.019325035 4288851648
0.7594161 -0.038119525 0.017794242 4288588221
0.76300001 -0.039913334 0.013806666 4288588738
0.76449192 -0.11446615 0.027172003 4285691007
0.75292915 -0.10372207 0.027134273 4289115335
0.76300001 -0.10967334 0.025425715 4288588212
0.74343562 -0.091616869 0.026827455 4289905879
0.75000006 -0.09714286 0.025000002 4289707990
0.73938054 -0.083461903 0.028743058 4290300125
0.74268472 -0.084479481 0.02254574 4290102235
0.71038949 -0.070989519 0.025102949 4291615209
0.73939008 -0.075924516 0.029688299 4290892006
0.74250007 -0.076821432 0.024751905 4291022822
0.73990226 -0.063687712 0.028766993 4290103008
0.7452215 -0.063861772 0.027023252 4289971164
0.74595594 -0.056192078 0.026914634 4289773524
0.75100005 -0.051437147 0.025037143 4289575376
0.74941814 -0.049638771 0.029076921 4289575888
0.75421238 -0.044818006 0.027189236 4289114825
0.76321375 -0.039005402 0.026032183 4288522943
0.74737269 -0.10105139 0.037563689 4289641158
0.75526094 -0.10313164 0.032051556 4289706954
0.76002932 -0.10890908 0.03042997 4288851385
0.74269104 -0.091574326 0.035304025 4290365395
0.75131691 -0.095857747 0.031917199 4290035921
0.73939157 -0.083465315 0.037223045 4290628568
0.74415767 -0.084251374 0.031643763 4290431708
0.73940086 -0.074985325 0.037226442 4290826204
0.74403751 -0.074523702 0.031670742 4290628832
0.73941016 -0.066505335 0.03722984 4290957020
0.74300003 -0.068351433 0.033258095 4290103000
0.74729639 -0.056988433 0.034685861 4290101718
0.75163096 -0.053051353 0.030409422 4289575893
0.75523442 -0.047040205 0.035463717 4289969622
0.76149565 -0.041887932 0.030806199 4288983493
