# .PCD v0.7 - Point Cloud Data file format
VERSION 0.7
FIELDS x y z rgb
SIZE 4 4 4 4
TYPE F F F U
COUNT 1 1 1 1
WIDTH 170
HEIGHT 1
VIEWPOINT 0 0 0 1 0 0 0
POINTS 170
DATA ascii
0.72295493 -0.095253535 -0.06725844 4290364364
0.73522586 -0.092486344 -0.06359943 4291219160
0.73449093 -0.089515589 -0.062588416 4290495700
0.75523007 -0.060905114 -0.067874826 4289573568
0.76308578 -0.068757154 -0.064790942 4289110190
0.74665385 -0.054747116 -0.062458459 4290165443
0.75535315 -0.12007096 -0.056118056 4288786883
0.76176709 -0.12054884 -0.051514339 4289047742
0.74840683 -0.11374365 -0.053870469 4289443524
0.75208884 -0.11129782 -0.055085652 4289903569
0.74560308 -0.10651612 -0.054140534 4290036178
0.73776567 -0.098623 -0.053042307 4290628317
0.74262863 -0.096883096 -0.053048123 4290629088
0.73591244 -0.084818929 -0.053028077 4291154660
0.73779011 -0.075654872 -0.054223526 4290366431
0.74232507 -0.072255559 -0.058669847 4291549416
0.73638999 -0.066133261 -0.051387418 4288325054
0.74515641 -0.064118892 -0.056125138 4289640135
0.73975098 -0.059562687 -0.052728727 4288061617
0.7461428 -0.055003118 -0.056361131 4290034896
0.75257033 -0.053421579 -0.057750691 4291415772
0.76032758 -0.050506856 -0.054445084 4289572030
0.75823355 -0.045091592 -0.05577388 4291022820
0.76961279 -0.044886414 -0.055125698 4290099401
0.75238717 -0.12033021 -0.044252485 4287993505
0.76274073 -0.12075169 -0.040229999 4286412156
0.74799478 -0.11275095 -0.042851478 4288981943
0.75202966 -0.11140396 -0.042469095 4289837761
0.74493718 -0.10537724 -0.042902105 4289707472
0.73738539 -0.098591149 -0.041718364 4290036436
0.74447149 -0.094393164 -0.0420519 4290300127
0.7354092 -0.085293084 -0.041204687 4290234332
0.74059838 -0.088685185 -0.041836333 4290562524
0.73743272 -0.075059138 -0.042572394 4289773784
0.71831238 -0.060693342 -0.046000835 4289049033
0.73611468 -0.065284409 -0.043852527 4289313235
0.70978367 -0.05524319 -0.044168964 4288456376
0.71443373 -0.05431658 -0.043383308 4289377740
0.71464252 -0.047961187 -0.044544805 4288653758
0.72221363 -0.039318748 -0.04082628 4287271319
0.75437397 -0.12053684 -0.035689954 4283649367
0.7624439 -0.12079552 -0.031703502 4285360757
0.74803084 -0.11417003 -0.035354055 4285160806
0.7527976 -0.11604641 -0.034262639 4286347912
0.74418914 -0.1062662 -0.034643251 4289310649
0.73750609 -0.098596536 -0.033251755 4289904853
0.74121851 -0.091517292 -0.03355043 4290233560
0.73542309 -0.084848896 -0.032571957 4290103002
0.73746997 -0.075992726 -0.035108421 4290036955
0.74220729 -0.072466694 -0.03357387 4289903821
0.73226166 -0.066844352 -0.037178311 4290036951
0.7437821 -0.06427215 -0.033633497 4290233306
0.70521522 -0.053180702 -0.034349255 4289641938
0.71036279 -0.055309437 -0.032115042 4289246914
0.74184155 -0.059197195 -0.033363745 4289904340
0.70632237 -0.046047267 -0.033677299 4289114568
0.71229172 -0.044244085 -0.035668388 4287600551
0.7211771 -0.03936651 -0.03531415 4286810002
0.75138277 -0.12026922 -0.026895696 4286017133
0.76189095 -0.12081519 -0.023173962 4286276931
0.74715447 -0.11266422 -0.024661329 4287400585
0.75412464 -0.11697225 -0.023493366 4286875009
0.73836958 -0.10097164 -0.023279577 4289576406
0.74504614 -0.1060645 -0.025182107 4289773259
0.73718804 -0.094968759 -0.026198694 4289839831
0.74116647 -0.091610648 -0.022453804 4290168281
0.73465419 -0.085697867 -0.023858471 4290103003
0.74020982 -0.083390422 -0.022395089 4290037209
0.73647141 -0.075116634 -0.026121844 4289379026
0.74259162 -0.074402131 -0.02197209 4289445330
0.73464608 -0.069691487 -0.02323433 4289641430
0.74554449 -0.063494809 -0.023421943 4288654272
0.70721614 -0.053313993 -0.023141507 4289115075
0.74158633 -0.059189849 -0.024857936 4288719807
0.70738995 -0.045228336 -0.023374062 4288259762
0.75535929 -0.12067139 -0.01544301 4286082143
0.76996708 -0.12451965 -0.014836848 4284696880
0.74684107 -0.11119977 -0.013193121 4288783266
0.75393504 -0.11185636 -0.011664432 4289901231
0.76091045 -0.11804325 -0.011803762 4287264345
0.73916399 -0.10019144 -0.014102283 4289839318
0.74588251 -0.10561831 -0.014770202 4289707732
0.73677748 -0.09495125 -0.013957269 4289905368
0.74111438 -0.091704018 -0.011355271 4290233818
0.73459321 -0.085678488 -0.013232413 4289971676
0.74015778 -0.083483808 -0.011294651 4290168024
0.73763609 -0.073483683 -0.013249087 4289379283
0.74189591 -0.078120716 -0.011293282 4290036953
0.74565685 -0.065893792 -0.011282777 4288851392
0.70563519 -0.051280942 -0.014192528 4289379283
0.73873174 -0.059428632 -0.013025634 4288588737
0.74510109 -0.058048144 -0.014510835 4288588477
0.70672184 -0.046811391 -0.012088562 4289379023
0.70986962 -0.037911467 -0.014222074 4283451982
0.71223783 -0.03955226 -0.014672168 4283648848
0.75485557 -0.12064662 -0.0038465264 4286145871
0.76345724 -0.12183609 -0.0034099047 4285027140
0.74767745 -0.11079103 -0.0022211028 4287859856
0.75285733 -0.11185437 -0.00041466387 4288256919
0.74728298 -0.10316364 -0.00034650991 4289839826
0.7377404 -0.098596469 -0.0021796194 4289905109
0.74428856 -0.094721138 -0.0030670422 4290365143
0.73460913 -0.085972808 -0.0016716811 4290168282
0.74010569 -0.083577164 -0.00019802194 4289971933
0.7363441 -0.074274354 -0.0026743114 4289445332
0.74194694 -0.07548131 -0.00013365439 4289642454
0.73566175 -0.066854119 -0.0049536931 4289181900
0.74540132 -0.064608797 -4.9787981e-05 4288652989
0.70764083 -0.051310033 -0.0034696371 4289906908
0.73939288 -0.059406281 -0.0017091348 4288390593
0.74316692 -0.059888009 -0.003645737 4288653502
0.70718175 -0.044792771 -0.0037167028 4287535017
0.71586424 -0.040543836 -0.00076533802 4283650923
0.70665842 -0.038823105 -0.0047460212 4286812581
0.75435334 -0.12061615 0.0048432965 4287200400
0.76122141 -0.12060825 0.0080492394 4286610564
0.7520383 -0.11331939 0.006945034 4288256158
0.74549896 -0.10618024 0.0069141411 4289707467
0.73887908 -0.098090805 0.007850742 4289774032
0.74101907 -0.09405797 0.0045019928 4290037210
0.73609281 -0.085391276 0.0071085095 4290168539
0.73633927 -0.074276343 0.0057650902 4289576919
0.74190772 -0.075551644 0.0082259588 4289905626
0.73668039 -0.064018317 0.0077307313 4288786377
0.74434686 -0.064650744 0.0083557796 4288390589
0.70919818 -0.055558596 2.4600711e-05 4289969099
0.71422976 -0.055732694 0.0080994982 4291482846
0.7429114 -0.059901692 0.0048362673 4288458178
0.70684397 -0.045564417 0.0047560153 4291024107
0.71412194 -0.046157673 0.0043965792 4288523975
0.71292621 -0.039675862 0.0001433299 4283979626
0.75534308 -0.12073378 0.016446451 4287797673
0.76298743 -0.12128152 0.016557438 4287534234
0.74853051 -0.11229239 0.015000104 4289311421
0.75562221 -0.11471357 0.015604508 4288455594
0.74640149 -0.10521951 0.016454158 4289707470
0.73848128 -0.098642945 0.014787686 4289970903
0.74392259 -0.093056269 0.017367782 4290299610
0.73560053 -0.086007334 0.01522439 4290234332
0.74165291 -0.084398486 0.014941921 4290299353
0.73720223 -0.07522694 0.013214826 4289511382
0.74146318 -0.072866969 0.016608752 4290036959
0.72238386 -0.061074186 0.017503338 4289047236
0.73587525 -0.06513378 0.014823965 4288917447
0.7151987 -0.055927362 0.014939185 4290497757
0.72050941 -0.0505458 0.01365952 4290893296
0.71418035 -0.048702128 0.013351958 4291089380
0.76489311 -0.042916186 0.016625462 4286284434
0.75434452 -0.12065013 0.02221469 4287403679
0.76772487 -0.12463312 0.025201157 4285364088
0.7482757 -0.11226452 0.026464984 4289180605
0.75673103 -0.11521815 0.026352171 4289181124
0.74637246 -0.10524951 0.027752921 4289708242
0.7378701 -0.097956844 0.027643273 4290036693
0.74228954 -0.095830485 0.026103813 4290102491
0.73611772 -0.086007997 0.02646015 4290168542
0.74237287 -0.081216626 0.027680673 4290234589
0.73702484 -0.077123545 0.024542317 4290102749
0.74185455 -0.070714459 0.026210133 4290169055
0.7362954 -0.068654969 0.02843567 4290498787
0.74356627 -0.059196297 0.02617529 4290299613
0.75562835 -0.053094752 0.025284063 4289575890
0.75572658 -0.046692505 0.027061796 4288194234
0.76519716 -0.042807139 0.025730247 4285825936
0.74528533 -0.10705487 0.036495671 4289706426
0.73872113 -0.098648787 0.034598909 4290299860
0.73497999 -0.085022956 0.035954513 4290431452
0.74031186 -0.088083342 0.033068914 4290431711
0.7372244 -0.075257085 0.033935312 4290168791
0.74341035 -0.063641347 0.033324391 4289971415
