# .PCD v0.7 - Point Cloud Data file format
VERSION 0.7
FIELDS x y z rgb
SIZE 4 4 4 4
TYPE F F F U
COUNT 1 1 1 1
WIDTH 134
HEIGHT 1
VIEWPOINT 0 0 0 1 0 0 0
POINTS 134
DATA ascii
0.75124449 -0.090899222 -0.062125351 4291879913
0.74354112 -0.084827535 -0.061523575 4292009960
0.74191988 -0.079171032 -0.061416231 4291879409
0.7461521 -0.064393744 -0.063129872 4290562263
0.74079847 -0.05960504 -0.061410986 4291879151
0.74703187 -0.045165837 -0.062510781 4290758360
0.74577487 -0.033503819 -0.062884368 4291481570
0.75313342 -0.0342464 -0.062529251 4291353069
0.76305199 -0.021753527 -0.06426423 4290562013
0.76363391 -0.016030673 -0.064273871 4290364895
0.7647891 -0.1046774 -0.054493878 4288587704
0.7542696 -0.091126375 -0.056658342 4288326840
0.76045775 -0.097229376 -0.054207571 4288258995
0.74656391 -0.085031718 -0.05610979 4286744997
0.76315421 -0.08501032 -0.056001674 4289576141
0.742612 -0.076446831 -0.055848029 4286610074
0.75502127 -0.076026194 -0.058226999 4290693336
0.73986977 -0.06984254 -0.051923539 4288982466
0.74665558 -0.064390987 -0.054684751 4289902794
0.74466717 -0.056395423 -0.053852644 4290628835
0.74727345 -0.0451787 -0.054022811 4290035927
0.75136203 -0.035267927 -0.054304268 4290364633
0.76238817 -0.026525367 -0.053623676 4290233048
0.76817828 -0.015828278 -0.055971004 4290103000
0.77734941 -0.0096564963 -0.059538223 4290499565
0.76562464 -0.10336141 -0.045876708 4287663512
0.71525621 -0.090382658 -0.044749107 4288653497
0.71667171 -0.083326124 -0.045760252 4289114309
0.71971941 -0.075580031 -0.046854258 4288654535
0.73737967 -0.074837252 -0.047056973 4289114309
0.74035019 -0.079187229 -0.041620646 4290232530
0.73534435 -0.066900469 -0.045501646 4289509071
0.74508232 -0.063396178 -0.042318702 4290365405
0.74477923 -0.056413319 -0.042555742 4290299610
0.74688202 -0.045192108 -0.042658761 4290299099
0.75361341 -0.035249829 -0.04302945 4289839061
0.76200372 -0.0265356 -0.043488219 4288785084
0.76666695 -0.015871815 -0.044315785 4288520622
0.71202469 -0.096419379 -0.034651756 4287599513
0.7121284 -0.085769355 -0.036015421 4289641933
0.74650389 -0.085139319 -0.033466309 4289708240
0.71671426 -0.075898334 -0.036231123 4289377996
0.74258918 -0.07375475 -0.035177533 4290167251
0.74766302 -0.064382598 -0.034914505 4290562010
0.74502105 -0.056431744 -0.034086838 4290036694
0.74674618 -0.045210879 -0.034146897 4290101975
0.74981004 -0.033380713 -0.034919791 4289576658
0.75236106 -0.037232336 -0.033736486 4289379018
0.755422 -0.027615422 -0.035164047 4289378764
0.76276839 -0.025102781 -0.034841947 4285424491
0.76969731 -0.015731923 -0.035793882 4286351761
0.70219779 -0.10358042 -0.020903526 4283650887
0.70945984 -0.096274942 -0.023786757 4286873473
0.70858884 -0.088265106 -0.023751002 4289774290
0.74546891 -0.08512035 -0.024942175 4289773010
0.71280676 -0.07438089 -0.025196454 4289247184
0.74364197 -0.075257614 -0.024874669 4289574860
0.74358416 -0.063447297 -0.026977375 4289773012
0.7440365 -0.055967331 -0.025102053 4289905365
0.74761647 -0.045219421 -0.025673017 4289839317
0.751831 -0.035303038 -0.025798446 4289575117
0.76160473 -0.026571913 -0.026118372 4287466384
0.7707088 -0.015675629 -0.027128493 4285625205
0.7763477 -0.009647687 -0.024397949 4284967786
0.71087861 -0.097327232 -0.012171317 4285884778
0.70856041 -0.08831615 -0.013008305 4289840853
0.71210784 -0.087853879 -0.014366931 4285426292
0.74645144 -0.085233472 -0.013653273 4289707476
0.71334076 -0.075727835 -0.014387349 4289445074
0.74290544 -0.075737283 -0.014035485 4289443530
0.74917191 -0.064385384 -0.015102928 4289377999
0.74524748 -0.056460597 -0.014297516 4289904855
0.74684763 -0.045234859 -0.014309828 4289838806
0.75282478 -0.035299189 -0.014406225 4289575117
0.76184267 -0.026583415 -0.014558775 4288720573
0.77172101 -0.015614486 -0.015541204 4286678424
0.71244979 -0.096605867 -0.0036572507 4286083692
0.71056539 -0.088488482 -0.0049636904 4290824664
0.74743378 -0.085346751 -0.0023300876 4290564585
0.71471953 -0.075767815 -0.0035565277 4289445589
0.74383444 -0.075372271 -0.0022841312 4289114566
0.74917465 -0.064366534 -0.0037429435 4289180875
0.74510831 -0.056477584 -0.002986982 4289773525
0.74721158 -0.04525546 -0.0029725148 4289707989
0.75255919 -0.035321787 -0.0029717244 4289378509
0.76132452 -0.026616847 -0.0029858639 4288720574
0.77576154 -0.015427582 -0.0039348565 4285098610
0.71482134 -0.095485806 0.0031063601 4287994020
0.71359074 -0.088715293 0.00042713687 4291353065
0.74842358 -0.085446678 0.0061779018 4291551477
0.71759939 -0.075872555 0.0046002232 4289511894
0.74280024 -0.075358689 0.0061809383 4288719038
0.74667013 -0.064290456 0.0047589773 4289049544
0.74447024 -0.056486532 0.0054955948 4289839830
0.74745286 -0.045270305 0.0055383136 4289708502
0.75204468 -0.035353802 0.0055979127 4289378766
0.75543165 -0.027549233 0.0047292314 4289180871
0.76271921 -0.025166314 0.0056910589 4288654010
0.76970714 -0.015664583 0.0047927275 4286878114
0.76800054 -0.10385605 0.014963851 4285757831
0.7188189 -0.090913735 0.01314216 4290101966
0.76645583 -0.09444049 0.017244495 4287468961
0.77307725 -0.091266073 0.010872593 4286482326
0.72075135 -0.081969962 0.012121847 4291090665
0.76667249 -0.085061535 0.016592428 4289641420
0.72349691 -0.074719571 0.012882848 4290564069
0.73817837 -0.079350159 0.014516517 4289773525
0.74140954 -0.072093122 0.015575451 4288851645
0.72856474 -0.069364294 0.015710361 4289445593
0.74427414 -0.061670206 0.013516368 4289444814
0.74781746 -0.053012554 0.013231427 4289840347
0.74821138 -0.045834467 0.01372246 4289839318
0.75316727 -0.035342395 0.014186573 4289444303
0.76386923 -0.025351847 0.013772759 4287930294
0.77071863 -0.015608201 0.013511448 4286812576
0.76340336 -0.1035406 0.026431909 4285887875
0.75638676 -0.094510064 0.02625433 4288785077
0.77108276 -0.09112367 0.028444292 4286352540
0.74837095 -0.085541077 0.026044276 4290496732
0.75967395 -0.08469931 0.027990676 4288984519
0.76267314 -0.084855884 0.02230354 4289114046
0.74464399 -0.075546391 0.025995821 4290760165
0.75629336 -0.075932451 0.024946708 4290497760
0.74308819 -0.060082331 0.026067924 4290168285
0.75043541 -0.064344645 0.024699375 4290365922
0.7488243 -0.053004865 0.024586426 4290037214
0.74768072 -0.045300145 0.025406413 4289839577
0.75415909 -0.035351872 0.025656998 4289510097
0.76242352 -0.02662836 0.02595631 4288917957
0.77173084 -0.015546969 0.02515207 4286549402
0.7508266 -0.072860412 0.033300802 4290037458
0.75140309 -0.067190602 0.033291258 4290102740
0.74982989 -0.053005617 0.033133816 4290300637
0.74767566 -0.044535909 0.032985993 4290103259
