# .PCD v0.7 - Point Cloud Data file format
VERSION 0.7
FIELDS x y z rgb
SIZE 4 4 4 4
TYPE F F F U
COUNT 1 1 1 1
WIDTH 102
HEIGHT 1
VIEWPOINT 0 0 0 1 0 0 0
POINTS 102
DATA ascii
0.76559669 -0.045676056 -0.066120639 10330541
0.7528953 -0.034246095 -0.065405168 11515331
0.74807292 -0.028633023 -0.065174043 11778238
0.7402935 -0.0090895742 -0.065135032 9278889
0.74072802 0.0022416792 -0.065532587 10660795
0.74155021 0.01080046 -0.065874845 10858173
0.76358438 -0.045486253 -0.057254013 11121092
0.75481445 -0.036909878 -0.056867547 11451084
0.74567324 -0.025678013 -0.056537867 12174806
0.7424826 -0.017296785 -0.056556363 12570077
0.74130553 -0.0088773202 -0.056716684 12569816
0.74273992 0.0025224336 -0.057168987 12372699
0.7491582 0.014375769 -0.058002025 12437723
0.75894117 0.023823144 -0.059004378 11977682
0.76789159 0.034546155 -0.055058468 12042712
0.76825356 0.044017531 -0.054370455 12241116
0.7664215 -0.051023733 -0.045663264 9539221
0.76561666 -0.045267504 -0.045778081 9868442
0.75406975 -0.03668721 -0.045342535 10859202
0.74568492 -0.025453463 -0.045168657 9340060
0.74249375 -0.017069139 -0.045221508 9275033
0.74131662 -0.0086497497 -0.04538564 8879247
0.74361968 0.0037331679 -0.046822865 11645891
0.74867004 0.014568847 -0.046467382 11780302
0.75995052 0.024140917 -0.047398925 11713228
0.76512212 0.030473409 -0.047879823 11712199
0.7675432 0.056506027 -0.047764264 11846354
0.77351665 -0.050831445 -0.031411201 7235163
0.76562518 -0.045092408 -0.03705984 9341828
0.75533891 -0.036506023 -0.036802121 10068149
0.74619699 -0.025274357 -0.036668655 6444399
0.75012112 -0.0279145 -0.031067405 8217719
0.74350727 -0.016867429 -0.036764849 5983347
0.74132448 -0.0084752385 -0.036884576 6772599
0.7432605 0.0029491605 -0.037279282 11449532
0.74917787 0.014780032 -0.037872761 11779528
0.75796342 0.024149526 -0.038536314 11122626
0.76709193 0.063679047 -0.035559833 10858423
0.77149922 -0.050685499 -0.025481431 6049094
0.76765484 -0.044930514 -0.028413814 8090730
0.75534737 -0.036332995 -0.028186718 10131613
0.74624252 -0.024139473 -0.02721164 10849619
0.74251044 -0.016727671 -0.028219234 9010028
0.74233693 -0.0082658492 -0.028420445 9993836
0.74397236 0.0041327174 -0.027833426 12040643
0.74818754 0.014876908 -0.02920818 11647946
0.75797194 0.024325233 -0.029787611 10794178
0.76315165 0.030763116 -0.024269413 9673390
0.7677896 0.064961374 -0.026206756 10331307
0.77150494 -0.050568007 -0.019631185 5260093
0.76564515 -0.044683855 -0.016717287 7695982
0.75510627 -0.036102634 -0.016695213 7954787
0.74558276 -0.023927014 -0.015824387 10323044
0.75013232 -0.027685018 -0.019641144 11970416
0.74252152 -0.016499871 -0.016876765 9863536
0.74084276 -0.0081038661 -0.017035643 11113090
0.74428105 0.0034110097 -0.017372204 11974840
0.74819881 0.015107613 -0.017720977 11713997
0.76047808 0.024769707 -0.01819903 10859972
0.76581931 0.064905874 -0.015275153 9673374
0.76666713 -0.044456299 -0.0050947964 8156793
0.75486511 -0.035872392 -0.0052094194 11054004
0.74647886 -0.024638334 -0.0053956206 10654608
0.7435379 -0.016240561 -0.005552107 12168858
0.74185765 -0.0078333076 -0.0057150214 10982774
0.74432683 0.0045704553 -0.0069421502 8880770
0.74970895 0.015450031 -0.0062446338 11583181
0.75799483 0.024793223 -0.0064856526 10925252
0.76416284 0.03115009 -0.0095942579 9607853
0.76896363 0.059508108 -0.0062750145 6975098
0.76566511 -0.044275299 0.0036252667 8750728
0.75537837 -0.035698555 0.0034030895 11516870
0.74634469 -0.02164118 0.0030829478 11974338
0.75015473 -0.027226055 0.0032113814 11252933
0.74354625 -0.016069597 0.0029604589 10658476
0.74236757 -0.0076389746 0.0027922965 9868701
0.7432996 0.0037496695 0.0025793253 12305109
0.74821854 0.015511349 0.0023816256 11713995
0.75999922 0.025138322 0.0022634119 11252167
0.76617098 0.031630218 0.0051266318 10398137
0.77033639 0.03802862 0.0080108438 10464712
0.76962751 0.047860444 0.0058422517 7239816
0.76836479 0.055661038 0.0046937671 9081507
0.76668423 -0.044105653 0.012364531 8882314
0.75690043 -0.035518751 0.012044016 11451593
0.74635303 -0.021469757 0.011618366 12109528
0.75016314 -0.027053943 0.011781078 11846348
0.74355459 -0.015898634 0.011473024 12371930
0.74237591 -0.0074680182 0.011304863 12372187
0.74330693 0.0039287433 0.011120307 11911891
0.7494759 0.015779287 0.011015568 11648464
0.75900984 0.025229257 0.011008132 11121094
0.76001638 0.025490347 0.019791296 10990788
0.76770622 -0.043877196 0.024032729 8487817
0.7559371 -0.034362044 0.022545923 11715022
0.76185459 -0.038059372 0.026650747 11712712
0.74535787 -0.021266213 0.022963261 12241371
0.75118184 -0.026806982 0.02324315 12110038
0.74356568 -0.015670681 0.02282311 12241627
0.742387 -0.0072400658 0.022654947 12306905
0.74432027 0.0042125899 0.022539731 12109272
0.74848825 0.015932659 0.022492917 11714003
