# .PCD v0.7 - Point Cloud Data file format
VERSION 0.7
FIELDS x y z rgb
SIZE 4 4 4 4
TYPE F F F U
COUNT 1 1 1 1
WIDTH 255
HEIGHT 1
VIEWPOINT 0 0 0 1 0 0 0
POINTS 255
DATA ascii
0.77352232 -0.10192271 -0.064517207 11119543
0.78299266 -0.09301421 -0.061206982 12768742
0.7607848 -0.083711825 -0.063437216 11712712
0.75406456 -0.052624743 -0.062967286 12961752
0.76093245 -0.059202321 -0.063620478 12501716
0.75053316 -0.030473405 -0.062872179 12568276
0.75711673 -0.021672225 -0.06345953 12239313
0.76403093 -0.023507675 -0.060449302 11910348
0.76590812 -0.01669484 -0.062445611 11647432
0.76860625 -0.10450134 -0.052452195 10003645
0.77084637 -0.1014487 -0.051292494 10463159
0.76346093 -0.091070712 -0.052102517 9608625
0.77316755 -0.093117274 -0.053818487 9871283
0.76177859 -0.083800286 -0.054850742 12635609
0.77768213 -0.082835078 -0.054393768 9541807
0.75642049 -0.074935123 -0.054446872 12767199
0.76964253 -0.073951572 -0.052584626 10924218
0.77327609 -0.075764619 -0.055295825 12109013
0.75295645 -0.063372649 -0.054183964 12964836
0.76406139 -0.065780006 -0.055296905 12767200
0.75590563 -0.056228966 -0.054775175 13096421
0.76276517 -0.059943054 -0.057308931 13425389
0.75603831 -0.047602993 -0.055027314 13030630
0.75554866 -0.03587155 -0.054849673 12635871
0.76176405 -0.038636677 -0.056023322 12834538
0.75791425 -0.026722545 -0.055361073 12437978
0.76575041 -0.024698908 -0.054832436 12569824
0.75932711 -0.015803458 -0.054980244 12767716
0.77468616 -0.014965194 -0.054055382 11911381
0.76354277 -0.0098030912 -0.055304557 12898532
0.77148706 -0.0015576862 -0.054922767 12371675
0.76036489 -0.12397984 -0.043276913 8817815
0.76483333 -0.11426951 -0.043408409 8882835
0.76833111 -0.10431889 -0.045284856 10924226
0.77349728 -0.10202117 -0.041050758 8817040
0.7662524 -0.09634243 -0.043545965 11319494
0.77281362 -0.093070902 -0.044918377 12305613
0.76404667 -0.086092561 -0.044886149 11912922
0.7779935 -0.082864881 -0.043800674 11715027
0.75690925 -0.074999906 -0.042989854 11978202
0.76952362 -0.076863728 -0.043793693 11583699
0.77383828 -0.074666589 -0.043086097 11649494
0.75244331 -0.063409775 -0.042713601 12241372
0.7653845 -0.066073038 -0.04464668 11715545
0.7546953 -0.055558193 -0.042908285 12175322
0.76060522 -0.055180322 -0.04081928 12306911
0.75274396 -0.045512043 -0.042806882 11713227
0.76059151 -0.04969079 -0.044753857 11978719
0.75495619 -0.035700187 -0.042417854 11449798
0.76123911 -0.035226516 -0.042473808 11648465
0.75509572 -0.021733955 -0.043132141 11845842
0.76457953 -0.026597885 -0.042832613 11054524
0.75931472 -0.015802069 -0.043391678 9933218
0.774809 -0.01609504 -0.04447443 10594231
0.76353037 -0.0098016933 -0.043647423 11252414
0.77123773 -0.00354065 -0.044104699 9935273
0.78490925 -0.0072020632 -0.042913835 9673135
0.76248085 -0.12711246 -0.034741051 8094083
0.7647813 -0.11500093 -0.034220997 10463148
0.76536572 -0.10597069 -0.035830747 11187911
0.77549869 -0.10219598 -0.035275966 8029308
0.7721355 -0.093202978 -0.033635139 9934735
0.76075405 -0.083832979 -0.034561303 11518673
0.7786575 -0.08270514 -0.031933498 10198940
0.78210413 -0.083497792 -0.03767816 12765642
0.75690025 -0.075039886 -0.034365188 11715543
0.76962376 -0.073949471 -0.035030354 12963803
0.77229649 -0.074602626 -0.034372754 11123407
0.75293523 -0.063460477 -0.034157496 12109531
0.76514679 -0.065910198 -0.035071809 11715801
0.75468647 -0.055581085 -0.034297835 11780820
0.76206863 -0.057540528 -0.033916805 11782106
0.75581938 -0.046893358 -0.034676488 11251651
0.7601012 -0.049670912 -0.036243692 11913181
0.7548722 -0.036188751 -0.033587333 9275273
0.76232958 -0.033572894 -0.035667941 9080219
0.75508648 -0.021732919 -0.034492146 12240580
0.76472664 -0.026167154 -0.033192646 8091523
0.77027452 -0.021777837 -0.036537115 8027282
0.75980514 -0.015781185 -0.034721151 5787239
0.77472329 -0.015933137 -0.033695769 10460836
0.76551884 -0.0097060483 -0.034995776 10462892
0.77322221 -0.0034294189 -0.032409251 7430001
0.75998104 -0.13164453 -0.025053434 6248792
0.76034647 -0.12405234 -0.025997072 7960441
0.76390558 -0.11405724 -0.025869116 9804704
0.76326418 -0.10835917 -0.02307873 12239315
0.77548611 -0.10224534 -0.023512263 6511440
0.76900089 -0.090119205 -0.026194042 8551549
0.77525157 -0.096368156 -0.023487855 6904654
0.76375359 -0.084026203 -0.026001692 10858686
0.77893925 -0.0809993 -0.023938201 7961205
0.7826013 -0.083533727 -0.024617963 8289669
0.75689107 -0.075076066 -0.025742406 11649494
0.76938021 -0.073936179 -0.021764949 10924997
0.77328992 -0.075434022 -0.027910953 10464442
0.75292605 -0.063496485 -0.025574714 11978715
0.76569009 -0.067585938 -0.025733249 11583698
0.75442666 -0.055593416 -0.025679819 11845329
0.76204807 -0.058470801 -0.024931472 11978202
0.75442958 -0.046605825 -0.024689749 10987958
0.76088488 -0.049654894 -0.02778904 11189453
0.75485969 -0.035725903 -0.024758216 10590877
0.76150811 -0.035227664 -0.028219495 11248542
0.75727344 -0.025505312 -0.024421133 10985884
0.76468819 -0.025986338 -0.025314638 10589063
0.7709915 -0.020812949 -0.028973013 9471616
0.75979584 -0.015780142 -0.026024016 10520930
0.7769208 -0.015066333 -0.025533829 9011316
0.76351166 -0.0097995969 -0.026161714 10986376
0.77321279 -0.0034283572 -0.023552112 7628654
0.78804207 -0.0069945501 -0.025689894 7106157
0.76257443 -0.13008256 -0.014539888 5062968
0.75983173 -0.12404782 -0.014469398 8156013
0.7648676 -0.12258442 -0.019861894 5786175
0.75809515 -0.11814918 -0.014422214 11453141
0.76476061 -0.11320461 -0.014923242 9540760
0.76999164 -0.090228125 -0.014544761 7563880
0.7732352 -0.096270002 -0.014626654 5456946
0.75972962 -0.083865441 -0.014325198 10860228
0.77984107 -0.081146725 -0.016945714 9807790
0.7838192 -0.085829884 -0.011864544 4865068
0.7566281 -0.075113133 -0.014239638 11452632
0.77428257 -0.076295495 -0.0139735 10595510
0.75241286 -0.06352973 -0.014123389 11847131
0.76507699 -0.065884687 -0.014819701 11517908
0.75551575 -0.056082491 -0.013303158 11912409
0.75508302 -0.046630535 -0.013296553 11978201
0.76065618 -0.049627814 -0.016470188 11781081
0.75509471 -0.036221527 -0.013554873 11780566
0.76125777 -0.035248794 -0.015323525 11254993
0.75506496 -0.021730501 -0.014332158 11450572
0.76511878 -0.026929239 -0.014466944 10923453
0.770679 -0.020798191 -0.015689412 9671067
0.75878412 -0.015818443 -0.014408895 9276315
0.77432686 -0.016285138 -0.01465106 10265265
0.76599646 -0.0096799443 -0.014542402 10332852
0.77070695 -0.0035645734 -0.01464572 8948132
0.78496832 -0.0071459007 -0.016925391 7698054
0.76132691 -0.12425473 -0.0029576111 7498339
0.76490331 -0.11514336 -0.0027684455 11121852
0.76209956 -0.10539059 -0.0042527006 8884383
0.77235347 -0.093347028 -0.0028811714 6908008
0.76072323 -0.083954133 -0.0056853802 10859719
0.77885586 -0.081081048 -0.0052359398 9610416
0.784823 -0.085905582 -0.0031840471 5325122
0.75636542 -0.075153947 -0.0027464102 11583702
0.76909095 -0.073954135 -0.0031053796 11320775
0.77330852 -0.075586587 -0.0045281965 10003378
0.75290167 -0.063592516 -0.0026873092 11978200
0.76488441 -0.065870218 -0.0033549794 11452629
0.75541133 -0.056103438 -0.001890535 11847128
0.75456911 -0.046657611 -0.0018742923 11978203
0.76042676 -0.049604464 -0.0051513291 11649753
0.75507557 -0.03623255 -0.002099691 10793672
0.76269871 -0.033567268 -0.0043245903 9937586
0.75605232 -0.021697035 -0.0028120526 10069937
0.767214 -0.02473066 -0.0026860004 8028564
0.77318072 -0.020019894 -0.0025876269 7764618
0.75927138 -0.015797205 -0.0028278923 8289676
0.77874213 -0.01238458 -0.0071716066 9212839
0.78077877 -0.011676332 -0.0031625931 7302512
0.76598406 -0.0096785435 -0.0028585976 7829894
0.77319068 -0.0034258789 -0.0028854583 8621463
0.78705704 -0.0070074433 -0.005389432 8093832
0.76232266 -0.12439678 0.005697222 7433095
0.76526755 -0.11399992 0.0046606036 10267577
0.77084643 -0.11246122 0.0081915911 12236989
0.76541507 -0.10530324 0.0030099005 8491433
0.77069426 -0.10427973 0.0082153492 8624310
0.76689434 -0.095032349 0.0058941375 8359327
0.77321327 -0.096356153 0.0059064883 7566722
0.76322126 -0.084121615 0.0029885666 11253706
0.77869499 -0.082314357 0.0045238519 9869475
0.78241712 -0.081203356 0.0035338867 9477290
0.75635624 -0.075190105 0.0058706524 11715029
0.76958001 -0.073944561 0.0059296209 10727369
0.77238917 -0.075802028 0.0050868797 10267324
0.75289249 -0.063628525 0.0058954684 12109275
0.76512975 -0.066569082 0.0052451128 11517911
0.75641304 -0.056137782 0.006676828 12043992
0.76361531 -0.05795268 0.0033730727 11649498
0.75436813 -0.046665207 0.0066811 11978203
0.7601912 -0.049585391 0.0033294451 11715545
0.7549265 -0.036243342 0.0064861965 11715287
0.76169306 -0.033583019 0.004222265 11188948
0.75745302 -0.025522742 0.0070835333 11714516
0.76661825 -0.024834238 0.0072956923 11385295
0.77036506 -0.021691799 0.0032760254 9740469
0.75976175 -0.015776319 0.0058654915 11515854
0.77501792 -0.016469967 0.0055661337 10002611
0.76647401 -0.0096538393 0.0059185941 10794180
0.7731812 -0.0034248168 0.0059716799 9016486
0.78605211 -0.0070392061 0.0061796457 8291482
0.76548541 -0.11609961 0.013014047 10132385
0.76853478 -0.10478259 0.014579561 9807291
0.77067494 -0.10428961 0.013880069 11518679
0.76788354 -0.096097514 0.0141542 11056324
0.77399302 -0.095329948 0.013506369 7702174
0.76548797 -0.086292401 0.014618229 10332607
0.77840412 -0.083344966 0.014640004 10727876
0.75684816 -0.075244896 0.014497219 11715031
0.76904607 -0.07395713 0.015770111 11780057
0.77316427 -0.07750617 0.013461074 11057097
0.75288337 -0.063664541 0.014478247 12109530
0.76450777 -0.065673791 0.013411602 11583959
0.7548607 -0.055199519 0.014985016 11978201
0.76204163 -0.057530239 0.01433052 11912667
0.75519562 -0.046685562 0.015255484 12043995
0.76021045 -0.049567066 0.011809406 11781339
0.75533128 -0.035537936 0.015087088 11846617
0.76191831 -0.038490169 0.01177444 11518426
0.7579385 -0.025511149 0.014264518 11517395
0.76500529 -0.026655203 0.015191724 11385295
0.77327251 -0.020836845 0.013473988 10923974
0.76175094 -0.015695885 0.014600945 11450061
0.77406168 -0.01577354 0.016286239 10990276
0.78118968 -0.011012098 0.012872341 9871029
0.76646465 -0.0096527869 0.014695732 10924739
0.77417022 -0.0033688415 0.014851783 9017001
0.77282393 -0.093503885 0.02644228 8555677
0.76369792 -0.084245145 0.026180681 11714255
0.77765483 -0.081001006 0.025063613 10397109
0.78369093 -0.085895568 0.025773278 6642534
0.75683588 -0.075293139 0.025994256 11583959
0.76905674 -0.073923908 0.0263905 11253191
0.77328503 -0.074628539 0.026062714 11189455
0.75287116 -0.063712552 0.025921948 11978717
0.76531333 -0.066558473 0.025317285 11583959
0.75524771 -0.055707887 0.026004765 11978716
0.76203525 -0.057527818 0.025682833 11847387
0.75635505 -0.046713386 0.026717909 12044509
0.76074588 -0.049544089 0.023131525 11716573
0.75646782 -0.036260389 0.026583377 11977948
0.76256514 -0.033567261 0.024179317 11583702
0.75702107 -0.021661492 0.026056614 11583700
0.76672637 -0.026299333 0.027581144 11451346
0.77227962 -0.020880528 0.025036518 10925262
0.76173848 -0.015694492 0.026227605 11451347
0.77666193 -0.013142151 0.025444733 10793412
0.78083724 -0.012869447 0.02342324 10465736
0.76745105 -0.0096040759 0.026436787 10662088
0.77415758 -0.0033674235 0.026676537 8951208
0.78506029 -0.0070585376 0.023501076 8161440
0.77350193 -0.075059518 0.032426745 11385289
0.74974293 -0.060819574 0.0343794 13029336
0.75397784 -0.06663321 0.034538575 13226198
0.76758814 -0.066390261 0.032085747 11584468
0.75151837 -0.055154245 0.034494594 13621733
0.76368004 -0.057891183 0.031830076 12045019
0.76025546 -0.049524307 0.031595971 12306655
0.75642997 -0.030337695 0.034675125 13293018
0.7624383 -0.034539115 0.032717347 12306139
0.76991558 -0.021651298 0.031692818 11320269
0.78085691 -0.0128508 0.032051772 11187138
