# .PCD v0.7 - Point Cloud Data file format
VERSION 0.7
FIELDS x y z rgb
SIZE 4 4 4 4
TYPE F F F U
COUNT 1 1 1 1
WIDTH 209
HEIGHT 1
VIEWPOINT 0 0 0 1 0 0 0
POINTS 209
DATA ascii
0.74495995 -0.10566458 -0.061416376 4291615206
0.75389814 -0.10318927 -0.064175278 4289772487
0.73901844 -0.09441153 -0.06108696 4290891486
0.73718697 -0.083478145 -0.06108804 4291615466
0.74166644 -0.082278304 -0.062555999 4290233558
0.73398614 -0.074416704 -0.062137175 4291088612
0.74105406 -0.071054183 -0.062423848 4290364117
0.73533452 -0.066365115 -0.062026449 4289641682
0.74064726 -0.061757542 -0.061668605 4291155428
0.73893684 -0.051706739 -0.06330771 4289375924
0.74577475 -0.055028189 -0.062543362 4289705161
0.74820912 -0.044589333 -0.063492596 4287269533
0.75764376 -0.11489807 -0.053844437 4288719543
0.7471329 -0.10146095 -0.052769475 4289838027
0.75441635 -0.10578344 -0.055444937 4289904847
0.74329889 -0.093958408 -0.054150902 4290101718
0.73882157 -0.085845023 -0.05375848 4290562523
0.74141896 -0.082239524 -0.054104328 4289905115
0.73634964 -0.074495137 -0.053973045 4290826207
0.74005282 -0.070999034 -0.053938847 4290760933
0.73573411 -0.062845491 -0.05457516 4290629089
0.74037582 -0.061757535 -0.053261302 4290365404
0.73942059 -0.051668026 -0.054914929 4290234072
0.7440266 -0.054634016 -0.053878158 4290036695
0.73936546 -0.046152696 -0.052452095 4286943657
0.74568391 -0.043164991 -0.055429641 4289312202
0.75134456 -0.04315035 -0.05461137 4288852166
0.73186123 -0.032175057 -0.051725294 4289509836
0.74001831 -0.037587617 -0.052239444 4287796638
0.75302935 -0.037363771 -0.058848333 4289509572
0.72970504 -0.026676949 -0.051616903 4290101970
0.73616499 -0.029544314 -0.050650533 4289509584
0.75762004 -0.11490093 -0.042537794 4286346107
0.76311994 -0.11237127 -0.041713681 4286812562
0.74446291 -0.10291104 -0.044708107 4289970636
0.7546494 -0.10713328 -0.043749996 4287533208
0.74498665 -0.095159888 -0.043682471 4289506743
0.73828512 -0.082068913 -0.044444539 4290168020
0.74162722 -0.084831916 -0.042476594 4289837513
0.73540205 -0.071877971 -0.045293987 4290562522
0.74151182 -0.070073143 -0.043753237 4290234077
0.73735589 -0.061890636 -0.044419274 4290300127
0.74215108 -0.061292972 -0.04436801 4290234078
0.73909318 -0.05255539 -0.044584505 4290168539
0.74490803 -0.052532203 -0.044087678 4289970905
0.74425375 -0.044303954 -0.043600522 4290102488
0.72540939 -0.033021331 -0.047045451 4289706187
0.73684913 -0.03201336 -0.046456188 4289972192
0.7415415 -0.034903806 -0.045474559 4290300381
0.72419202 -0.024499215 -0.043254044 4289050057
0.73398066 -0.026861563 -0.044972487 4289509839
0.725384 -0.015745599 -0.045875929 4286418853
0.73450065 -0.018671798 -0.044969164 4287206827
0.76471961 -0.12107103 -0.034324426 4285825926
0.75760221 -0.11490308 -0.034057811 4284309366
0.74495876 -0.10295124 -0.036376111 4283185761
0.75319248 -0.10723176 -0.034869447 4284439149
0.74588048 -0.095189206 -0.035260733 4284238944
0.73815769 -0.083538078 -0.036210719 4290299350
0.74129564 -0.085161552 -0.034760274 4289508032
0.73696995 -0.074453585 -0.036648471 4290168536
0.74094796 -0.071893893 -0.036251958 4290168537
0.73799527 -0.06683702 -0.038034029 4290299354
0.74161303 -0.061791249 -0.036551293 4290102487
0.73846078 -0.054384176 -0.035176843 4290037209
0.74477041 -0.053682726 -0.036115773 4289970642
0.74394196 -0.046604697 -0.036847044 4290628574
0.75460827 -0.042707451 -0.034705952 4289179848
0.75490278 -0.034335986 -0.036034122 4288127149
0.76275766 -0.034478076 -0.035309583 4287337627
0.71952254 -0.021467831 -0.034532212 4289706951
0.72342676 -0.023826001 -0.035138842 4288984004
0.72662365 -0.016390648 -0.036532655 4288457921
0.73113251 -0.013363834 -0.033781808 4287208885
0.75809908 -0.11495082 -0.025596287 4286539093
0.76308578 -0.11228783 -0.024342483 4284898654
0.74544877 -0.10299214 -0.025247926 4286475091
0.75378263 -0.10564359 -0.026668375 4286805605
0.76049489 -0.10900418 -0.02380472 4285554270
0.74421769 -0.093939736 -0.026049322 4288253308
0.75074279 -0.099967904 -0.029747929 4284110455
0.73850942 -0.085769564 -0.025844708 4290035399
0.74017721 -0.082085371 -0.025954453 4289905878
0.73619938 -0.075316437 -0.026072547 4290168023
0.74106771 -0.070932075 -0.025974533 4290036954
0.73779052 -0.066343904 -0.025932444 4290168025
0.74133468 -0.061786324 -0.025340186 4289839833
0.73972344 -0.052467607 -0.025866609 4289642455
0.74544817 -0.054016802 -0.02591767 4289510355
0.74421024 -0.045871194 -0.028402511 4289378252
0.75620383 -0.042169731 -0.026931984 4288259261
0.75638545 -0.034257732 -0.027467173 4286810774
0.76276088 -0.034449246 -0.026703918 4286482844
0.71847177 -0.023937378 -0.026906174 4287861660
0.72043353 -0.026334077 -0.02211534 4286412878
0.71928763 -0.017529601 -0.023773696 4288654529
0.72525477 -0.014150463 -0.026420247 4288128181
0.7646777 -0.12107608 -0.014377804 4283514928
0.75910455 -0.11504491 -0.014292268 4287328067
0.76306868 -0.11224611 -0.015656887 4284039743
0.74645203 -0.10307115 -0.014107717 4288121462
0.75320202 -0.10581634 -0.014900804 4287525980
0.76099706 -0.10901494 -0.015131014 4286211153
0.74546039 -0.095100649 -0.014924188 4288779400
0.73886979 -0.085761294 -0.014693877 4290233289
0.74093288 -0.082082972 -0.014743965 4289906138
0.73675776 -0.07529474 -0.014928502 4290168540
0.74157387 -0.070909768 -0.014767587 4290036700
0.73851848 -0.066330396 -0.014776472 4290102488
0.74182016 -0.061800934 -0.014154858 4289840087
0.74443889 -0.05407095 -0.014886019 4289576146
0.74468535 -0.045807883 -0.015682185 4289181126
0.75636113 -0.042666934 -0.014777609 4287931067
0.75736272 -0.034182861 -0.015973074 4285757828
0.76478541 -0.034373645 -0.015270581 4286613135
0.71883917 -0.024883591 -0.013925944 4284569174
0.72051781 -0.020889297 -0.013901388 4289379537
0.77560842 -0.028414052 -0.018408898 4283714374
0.71933556 -0.015913047 -0.01812475 4289970123
0.72520435 -0.01410581 -0.014545433 4288589504
0.75805157 -0.11495655 -0.0029677651 4287001969
0.76304018 -0.11217658 -0.0011808883 4286151045
0.74540192 -0.10299779 -0.0029394026 4289039482
0.75377208 -0.10647294 -0.0038371694 4287988592
0.76050353 -0.10892658 -0.00064294616 4287071873
0.7456975 -0.095081247 -0.0036333767 4287989105
0.73885429 -0.083582975 -0.0029337173 4290365397
0.74077028 -0.085009068 -0.0038202498 4288586671
0.73690534 -0.075266279 -0.0037677798 4290036440
0.74132699 -0.070865504 -0.0035463891 4289906395
0.73849577 -0.066304855 -0.0035956081 4290102746
0.74179655 -0.06180378 -0.0029529778 4289970901
0.74405438 -0.054035734 -0.0036184788 4289510611
0.74566329 -0.045747131 -0.0043518264 4289377994
0.75609922 -0.042650253 -0.0033468418 4287931060
0.75592178 -0.037043396 -0.0044272514 4287602094
0.76327348 -0.032732453 -0.0041193119 4285298049
0.71946865 -0.021336269 -0.0071421 4285163635
0.72324741 -0.023840699 -0.0020010001 4287139231
0.77259296 -0.024964552 -0.0074744015 4283385155
0.72625172 -0.014467888 -0.0040437449 4288852676
0.75854826 -0.1150043 0.0055242376 4287726742
0.7630288 -0.11214877 0.0046095098 4286020751
0.74538434 -0.1029999 0.0054262932 4288648605
0.75351167 -0.10578737 0.0050233207 4287991959
0.76050574 -0.10890719 0.0051474972 4286611083
0.74475628 -0.093886323 0.0049399822 4288781988
0.7506755 -0.099803664 0.0044458974 4288715428
0.73870242 -0.085710794 0.0048410613 4290036687
0.74169171 -0.082052261 0.0049179038 4289774552
0.73740298 -0.074344434 0.0046112235 4290168537
0.74107927 -0.070828758 0.0048671998 4289971163
0.73812068 -0.06260559 0.0041658464 4290233305
0.74203318 -0.061809912 0.0054530124 4289905619
0.74480158 -0.054018252 0.0048325565 4289576149
0.74350244 -0.046658289 0.0060181203 4289641680
0.75381672 -0.042654399 0.0052092052 4287863984
0.72330284 -0.031708352 0.0053312904 4285233529
0.75290525 -0.037061051 0.0041755838 4287272872
0.76176256 -0.034362208 0.0048439628 4287074715
0.72554308 -0.023749722 0.0054078628 4289246150
0.72677916 -0.015418244 0.0066235731 4289312200
0.73080707 -0.015953247 0.0045738732 4289575628
0.75945973 -0.12059034 0.016846668 4285428350
0.75801593 -0.11496084 0.014003626 4287928219
0.74536675 -0.10300202 0.01379199 4289642955
0.75470382 -0.10681341 0.013591002 4288522419
0.76250464 -0.10903724 0.01386533 4287534999
0.74526912 -0.094973683 0.013388866 4289970130
0.73907506 -0.083600603 0.013729399 4290234331
0.74204987 -0.084635414 0.013794124 4289905368
0.73795629 -0.075245835 0.013000934 4290234076
0.74158412 -0.070817672 0.013287499 4290037469
0.73821145 -0.066261962 0.013169697 4290102492
0.74201554 -0.061812043 0.013858708 4289970648
0.74413377 -0.054218844 0.013503074 4289839575
0.73873419 -0.045249887 0.013845056 4288524228
0.74639028 -0.042299598 0.012713503 4288852938
0.72726476 -0.035278 0.012736185 4287403687
0.73630726 -0.034544863 0.015228597 4288457156
0.74509877 -0.034642179 0.013133564 4287601843
0.72930026 -0.028236918 0.011334457 4287995563
0.73639488 -0.024323728 0.012483124 4289314000
0.75799215 -0.11496371 0.025317887 4287665303
0.74483001 -0.10296675 0.024926608 4290036435
0.75434846 -0.10675636 0.024986902 4288588217
0.76151115 -0.1089188 0.025447277 4287534751
0.74550563 -0.09495797 0.02466807 4289774033
0.73905176 -0.083603412 0.024837945 4290234586
0.74282742 -0.08639805 0.02436376 4289971417
0.73734981 -0.075197019 0.024163341 4290300382
0.74231958 -0.075007319 0.024565846 4290037727
0.73869359 -0.06624686 0.024368268 4290168285
0.74300849 -0.061830953 0.025101766 4289970905
0.74497312 -0.053964455 0.024565199 4289904855
0.7461102 -0.04560975 0.022598758 4290498526
0.75251776 -0.043815322 0.023718562 4290498019
0.76154602 -0.042330563 0.022974681 4290300889
0.7434271 -0.031888228 0.021485012 4291418604
0.75664639 -0.039415397 0.026472498 4289181642
0.76278132 -0.034266658 0.02779863 4287272109
0.74365926 -0.09247762 0.033005048 4290233292
0.73755389 -0.080820397 0.033122193 4290496467
0.74335718 -0.084842473 0.033130601 4290102487
0.73842204 -0.075096115 0.032283958 4290825692
0.741822 -0.074954465 0.032974958 4290103776
0.73956645 -0.062490504 0.032292806 4290497491
0.74298364 -0.059615768 0.032889564 4289971932
0.75101066 -0.042675167 0.032757305 4290167763
