# .PCD v0.7 - Point Cloud Data file format
VERSION 0.7
FIELDS x y z rgb
SIZE 4 4 4 4
TYPE F F F U
COUNT 1 1 1 1
WIDTH 194
HEIGHT 1
VIEWPOINT 0 0 0 1 0 0 0
POINTS 194
DATA ascii
0.77459371 -0.096651509 -0.062909566 13884395
0.75847721 -0.085841566 -0.06464348 12636382
0.76007223 -0.087373316 -0.06187737 14081260
0.75123835 -0.073249362 -0.061372437 14016495
0.74627542 -0.06289424 -0.064683408 11251643
0.74706119 -0.055584326 -0.063020907 12109526
0.74953985 -0.048579089 -0.061593786 13690609
0.75359136 -0.042472824 -0.062855899 12767973
0.75502324 -0.034746096 -0.062235001 12963290
0.76331967 -0.028501377 -0.066217542 11450827
0.73790616 -0.10546315 -0.054517463 9345716
0.74149448 -0.1033304 -0.053519759 10200757
0.74371779 -0.097730711 -0.052154455 10068151
0.75501138 -0.092238784 -0.055186689 10726851
0.76835269 -0.093432203 -0.056764837 7697807
0.75563294 -0.083543539 -0.055873174 11056063
0.76005614 -0.087381959 -0.056239307 8221563
0.74776125 -0.071452744 -0.056256562 12635614
0.75257993 -0.077068448 -0.055700622 12635102
0.74795705 -0.065321378 -0.054555256 12766689
0.75143254 -0.069538273 -0.058262173 13031404
0.7465328 -0.054384485 -0.056208096 12701924
0.7509613 -0.057539776 -0.055685192 12898534
0.74879551 -0.045878343 -0.056396462 12636385
0.75330257 -0.046284683 -0.054370064 12569825
0.76076764 -0.040330753 -0.057947278 12701923
0.75626647 -0.03597419 -0.055370245 12503517
0.76408666 -0.032297596 -0.056762412 12044253
0.76666892 -0.025850249 -0.055460129 11647954
0.77589452 -0.026705472 -0.057081413 11517651
0.73255593 -0.11612902 -0.040197052 8750989
0.7376225 -0.1057027 -0.044980031 10265778
0.74009687 -0.10905728 -0.045409251 9541278
0.756589 -0.10109763 -0.044317886 11517649
0.74507064 -0.095116027 -0.048124701 11845073
0.75390989 -0.091830678 -0.044324804 12174035
0.76574939 -0.09601295 -0.0423695 11186361
0.74990815 -0.085751645 -0.047826901 11452628
0.75477439 -0.082520477 -0.044422362 11650522
0.74825585 -0.071463875 -0.044910096 12175837
0.75308728 -0.077069357 -0.0472579 11979231
0.74626476 -0.062884085 -0.044816747 12307168
0.75166768 -0.068644591 -0.04579366 12176094
0.74602628 -0.054373145 -0.044821225 12175326
0.75280821 -0.057082165 -0.044981703 12372190
0.74878937 -0.045872513 -0.044998378 11912667
0.75297815 -0.045862194 -0.043892719 12042967
0.76251197 -0.041185971 -0.047549065 11780820
0.75700623 -0.035976332 -0.043973207 10659515
0.76483637 -0.032252774 -0.045311831 10132646
0.76572573 -0.025517138 -0.044553488 10066849
0.77484745 -0.025395721 -0.045432135 10725812
0.73647469 -0.11394034 -0.036813211 9277589
0.73399472 -0.1070955 -0.038445018 11582668
0.76933557 -0.10193591 -0.034784645 8949657
0.76499772 -0.094318241 -0.035044424 9278105
0.77311897 -0.099163711 -0.037173968 8291205
0.75755388 -0.085433401 -0.035207372 11385289
0.76000774 -0.087407872 -0.039325107 12439253
0.74900234 -0.071486846 -0.036413252 12175321
0.75375229 -0.07613565 -0.036304772 11781341
0.74626023 -0.062879726 -0.036302462 12110301
0.75205386 -0.068637222 -0.037344009 12044252
0.74602175 -0.05436879 -0.03630694 12109275
0.75120211 -0.057942145 -0.036885992 12109533
0.74878478 -0.045868143 -0.036449797 11781334
0.75399441 -0.046324924 -0.034733452 11648464
0.76151931 -0.041096322 -0.034590084 10133164
0.75699174 -0.035980664 -0.035384659 7826546
0.76254117 -0.031939697 -0.034201417 7888988
0.77015257 -0.032427087 -0.034970496 7364455
0.76693356 -0.027319901 -0.035872605 11054508
0.77552795 -0.023944542 -0.034270864 9340804
0.73379982 -0.11544167 -0.026246393 8750470
0.73274088 -0.10778672 -0.027686715 11648976
0.76687068 -0.094753809 -0.02744096 9013646
0.77450252 -0.099478006 -0.022764891 6575440
0.7566781 -0.083301201 -0.02709499 11056839
0.74774599 -0.071438208 -0.027827999 11847129
0.75372016 -0.076152831 -0.025089592 11845078
0.74625564 -0.062875375 -0.027788177 12044252
0.75229967 -0.068625703 -0.027480818 11912666
0.74701786 -0.054375488 -0.027827352 12043739
0.75106609 -0.05746188 -0.027480647 11978203
0.75238681 -0.044942614 -0.026143955 11187142
0.75647712 -0.035990894 -0.026778758 9339528
0.76251656 -0.03195288 -0.025595745 10589576
0.76691878 -0.027324321 -0.027158342 9998988
0.73409969 -0.11493345 -0.015827334 8552320
0.73147559 -0.10686613 -0.016101241 11715805
0.76910514 -0.10180126 -0.018689433 5261651
0.75907069 -0.092011586 -0.016650196 10330786
0.76726025 -0.095877357 -0.016517414 7367269
0.77344382 -0.099410191 -0.014157295 5589063
0.75694728 -0.083839893 -0.016892307 10859206
0.7609663 -0.087512791 -0.013967153 10726586
0.74799013 -0.071438976 -0.016462386 11715288
0.7536881 -0.076170012 -0.01387441 11649747
0.7462495 -0.062869571 -0.016435798 11978457
0.75138974 -0.068557307 -0.016166972 11846617
0.74770498 -0.055327274 -0.015524905 12043481
0.75160176 -0.055486988 -0.017277628 11912153
0.7487725 -0.045856483 -0.013653617 11780823
0.75391459 -0.045831829 -0.016710525 11583445
0.76204228 -0.040979709 -0.018832557 11451857
0.75695777 -0.035990767 -0.015344715 11384783
0.76350051 -0.031961672 -0.01413479 11056328
0.7711817 -0.032292083 -0.019068468 10728393
0.76529288 -0.028437257 -0.016843172 10858687
0.77445883 -0.023344975 -0.015978348 9344167
0.73373848 -0.11499882 -0.0058474578 8882572
0.73421234 -0.10789081 -0.0042101089 12176868
0.76911914 -0.10171638 -0.006998321 4999248
0.76584285 -0.094934866 -0.0049977093 8224135
0.77547914 -0.099589765 -0.0027135899 6314836
0.75658166 -0.084019326 -0.005222532 10596290
0.76093405 -0.087530091 -0.0026834013 10462389
0.74748337 -0.071416207 -0.0050831423 11781080
0.75305092 -0.076956756 -0.0062833102 11452372
0.74624342 -0.06286376 -0.0050834203 12043228
0.75150597 -0.068528712 -0.0048826309 11781336
0.74650532 -0.054358345 -0.0050881053 11781335
0.75206161 -0.057413653 -0.0049182079 11781338
0.74876946 -0.04585357 -0.0079545714 11649235
0.75382096 -0.045807216 -0.004692188 11649237
0.76155186 -0.040898606 -0.0073574847 11320276
0.75769293 -0.035990305 -0.0038949405 11123403
0.76245087 -0.03198804 -0.0026472958 9609656
0.77321571 -0.032168865 -0.0074848151 10199988
0.76687944 -0.027336102 -0.003920312 8620190
0.77480125 -0.0243604 -0.0063820621 8290455
0.73677897 -0.11397355 0.0035293147 9080472
0.74029678 -0.11004783 0.0055321334 12041158
0.73755574 -0.1075858 0.0053288992 12306648
0.76863021 -0.10161713 0.0017717809 6583188
0.77241695 -0.10456637 0.0036329292 9350855
0.75504959 -0.091742456 0.006360847 10198183
0.76369727 -0.094335198 0.0037478688 8817569
0.77233416 -0.099039987 0.0047489679 7633803
0.75702882 -0.084486946 0.0036384661 10463420
0.74898088 -0.071466461 0.0034534051 11912411
0.75304914 -0.076901138 0.0064707226 11650010
0.74623883 -0.062859409 0.0034308638 12240606
0.75226432 -0.068707176 0.0057131513 11781594
0.74700105 -0.054359499 0.0034335931 11781339
0.75300479 -0.05751875 0.0056669652 11781595
0.75413227 -0.046906471 0.005100871 11583702
0.76181936 -0.040803812 0.0055473335 11385811
0.75690579 -0.035990298 0.0046928488 11385553
0.76242626 -0.032001227 0.0059583737 11253963
0.77121115 -0.032113183 0.0055727698 10991308
0.76528192 -0.028426824 0.0035568248 10531018
0.77503359 -0.023782041 0.0057178112 10135226
0.78101939 -0.026146535 0.0012290331 10660030
0.74254119 -0.10600553 0.012684606 12108493
0.74564004 -0.09824381 0.013244547 11256796
0.75368071 -0.092194878 0.012133494 9608370
0.75497264 -0.083035342 0.012445036 11121865
0.74897623 -0.071462095 0.011996261 11978204
0.75360787 -0.076212972 0.014163539 11847129
0.74623424 -0.062855057 0.011945148 12175070
0.75227237 -0.067962557 0.01417593 11978716
0.74749684 -0.054360643 0.011968625 11912410
0.75091618 -0.056962166 0.014205332 12043995
0.75225109 -0.045591187 0.014165235 11714773
0.75740933 -0.035999287 0.013294999 11451086
0.76240164 -0.032014411 0.014564043 11319245
0.76627702 -0.028402906 0.012322113 10792644
0.77146804 -0.026218925 0.014779819 10727108
0.78103691 -0.026040055 0.015895303 10398652
0.7696535 -0.10153957 0.022257216 10198699
0.7646634 -0.094317749 0.024467401 10661304
0.77330726 -0.099120617 0.022150448 11644854
0.75588781 -0.081836782 0.023539448 11978460
0.76098537 -0.088475779 0.023701016 11912407
0.74897015 -0.071456268 0.023386734 11978461
0.75387174 -0.074033879 0.024827577 11847387
0.74622816 -0.062849253 0.023297524 12175584
0.75319791 -0.065654047 0.026377209 11978716
0.74801821 -0.055314086 0.022415267 12043998
0.75250262 -0.055419754 0.024356335 11978206
0.75417536 -0.046067666 0.023460284 11715290
0.76309896 -0.040679712 0.021356521 11321046
0.75839978 -0.035999279 0.023343358 11516882
0.76418829 -0.031187536 0.02549498 11122638
0.77224034 -0.031977598 0.021552892 11056841
0.76940453 -0.026269108 0.026333902 10728136
0.77556515 -0.024215769 0.024407171 10398398
0.75945079 -0.086335599 0.030399255 11515592
0.74796426 -0.071418054 0.031884275 13095131
0.75520277 -0.07184729 0.030030573 11782615
0.74622357 -0.062844895 0.031811811 13555175
0.75567073 -0.042981833 0.032254346 12831966
0.76548052 -0.037749648 0.030039301 11584218
