# .PCD v0.7 - Point Cloud Data file format
VERSION 0.7
FIELDS x y z rgb
SIZE 4 4 4 4
TYPE F F F U
COUNT 1 1 1 1
WIDTH 233
HEIGHT 1
VIEWPOINT 0 0 0 1 0 0 0
POINTS 233
DATA ascii
0.74290067 -0.085650176 -0.070703492 4289903303
0.75150037 -0.10656957 -0.064176396 4288324524
0.7358287 -0.093571514 -0.062433556 4290100427
0.72482997 -0.080225833 -0.060492821 4289904079
0.73619318 -0.086054072 -0.062679201 4290364883
0.73459148 -0.075798817 -0.06193113 4290496470
0.72465843 -0.066447482 -0.060628325 4287931070
0.73502249 -0.0655775 -0.063216425 4288652983
0.72599101 -0.052693073 -0.063655511 4289574085
0.74111372 -0.056079656 -0.062727429 4288193722
0.73918623 -0.04651491 -0.062880069 4289443793
0.74124449 -0.047251351 -0.065059856 4289770946
0.74389654 -0.035482503 -0.062058497 4289969877
0.74857217 -0.11543255 -0.056411352 4289775072
0.75158602 -0.11568598 -0.050924487 4289117396
0.73997372 -0.10338759 -0.053066373 4289049541
0.7459442 -0.10346299 -0.055433549 4289839312
0.75309318 -0.10727908 -0.053695835 4289181385
0.73622769 -0.095446981 -0.053314369 4289905103
0.7427699 -0.095830627 -0.055169296 4289971664
0.72910959 -0.085924059 -0.052458718 4290495191
0.73665285 -0.087287709 -0.054582059 4290366169
0.72744942 -0.077545747 -0.052421935 4290496216
0.73291636 -0.076078594 -0.053384423 4290562779
0.72857934 -0.066599511 -0.055199828 4290234587
0.73539221 -0.065065861 -0.054113925 4290234334
0.72945493 -0.058185644 -0.0589462 4290563299
0.7324838 -0.054422598 -0.055421069 4290826208
0.74215251 -0.053321384 -0.054455537 4289905369
0.73736358 -0.045997255 -0.054264985 4290694110
0.74634653 -0.042985462 -0.054827616 4289905368
0.74546498 -0.035476167 -0.052770685 4288851653
0.75459272 -0.036227107 -0.053422641 4288522946
0.74428499 -0.026996762 -0.05167634 4289180361
0.75420964 -0.025892647 -0.052244857 4289114830
0.73885548 -0.018917428 -0.05103058 4289508551
0.74311078 -0.018231582 -0.052516729 4289444046
0.75173265 -0.01781207 -0.052007146 4288655817
0.75359172 -0.11582252 -0.042466681 4286939792
0.73996562 -0.10331159 -0.041805685 4288192422
0.74676996 -0.10380813 -0.042890433 4288125347
0.75343341 -0.10718364 -0.04387987 4288060322
0.73555207 -0.095351391 -0.044863891 4289706181
0.74370563 -0.095587932 -0.043317311 4289046701
0.72910357 -0.08586783 -0.044127479 4290102224
0.73671198 -0.087478243 -0.044820264 4290035149
0.72819597 -0.07752452 -0.044153493 4290364624
0.73366529 -0.076367401 -0.045570295 4290233299
0.72884381 -0.069060244 -0.044677764 4290233560
0.73192751 -0.064378455 -0.045994051 4290168278
0.73274636 -0.056041464 -0.045285754 4290167767
0.74214256 -0.053282812 -0.046129912 4289707991
0.73787075 -0.046318982 -0.044051856 4289970128
0.7439248 -0.046203598 -0.043146372 4289839060
0.74760497 -0.037001297 -0.042357903 4289838545
0.75526446 -0.036170501 -0.043086112 4289577429
0.74630904 -0.026238939 -0.04635825 4289970132
0.75878787 -0.028455295 -0.046936989 4289776606
0.73733383 -0.015150193 -0.043441687 4289510089
0.74582732 -0.014055381 -0.045807753 4288852679
0.75172603 -0.017786268 -0.046437684 4290564062
0.73782092 -0.0076793418 -0.046278186 4287601843
0.74030691 -0.0099477703 -0.040558256 4289774034
0.75079787 -0.0070353076 -0.046302885 4286617778
0.75157368 -0.11557028 -0.033782024 4285957766
0.73995954 -0.10325459 -0.033360165 4286746781
0.74642831 -0.10309733 -0.034681935 4284703355
0.75284463 -0.10800865 -0.035512928 4287271331
0.73352236 -0.094418809 -0.035936877 4284767344
0.74368167 -0.095575482 -0.03494598 4286081903
0.7290976 -0.085811593 -0.035796244 4285556355
0.7369436 -0.087101638 -0.036805432 4285358457
0.72793901 -0.077455446 -0.035816573 4286212475
0.73359537 -0.076538332 -0.035846915 4287002754
0.72828573 -0.069168918 -0.035909157 4290098626
0.73235524 -0.065249428 -0.035891298 4289838286
0.73402756 -0.055128053 -0.036133926 4289904596
0.74213266 -0.053244244 -0.037804294 4289510611
0.73693466 -0.046178386 -0.034070089 4289707217
0.74755502 -0.042390425 -0.035832822 4289378765
0.74861228 -0.03389376 -0.032484908 4288587956
0.75461257 -0.036005989 -0.035300817 4289575633
0.73577785 -0.017512776 -0.036757186 4286218381
0.73592758 -0.0062914439 -0.03623743 4289640903
0.74373037 -0.0043248055 -0.035957161 4288983240
0.73415953 0.0018758257 -0.034943383 4286419618
0.75989425 -0.12203754 -0.022554975 4284177486
0.75408232 -0.11575501 -0.025293531 4284769377
0.73995346 -0.10319759 -0.024914639 4286873724
0.74639869 -0.10306663 -0.024831947 4285817689
0.75245571 -0.10737419 -0.026171856 4286281854
0.73401678 -0.094380528 -0.024782708 4287658350
0.74365139 -0.095565408 -0.025191808 4287724385
0.72908956 -0.085736625 -0.024687929 4287199341
0.73701239 -0.087452792 -0.025390476 4287529074
0.72868365 -0.07741528 -0.024744386 4288974201
0.73384106 -0.076979697 -0.025271045 4288845183
0.72827768 -0.06909395 -0.024800843 4290036434
0.7327376 -0.065235406 -0.024846831 4289905109
0.73271918 -0.055344634 -0.024506982 4289707731
0.74348712 -0.052283071 -0.025817631 4289313235
0.73907691 -0.046109181 -0.025130756 4289444559
0.74789715 -0.042084988 -0.026250955 4289181388
0.74653912 -0.033918649 -0.023928594 4287733684
0.75406772 -0.036646675 -0.02569746 4288325820
0.76176333 -0.033809341 -0.027312221 4287732644
0.73556399 -0.013219031 -0.025525102 4285098093
0.73580635 -0.0046307901 -0.024873057 4287336084
0.74435937 -0.0029468406 -0.026676092 4287930286
0.73274481 0.0036415686 -0.022760319 4286745496
0.7529279 0.0039490741 -0.024164304 4285494918
0.7540741 -0.11567765 -0.013830938 4283122495
0.73994333 -0.10310259 -0.010838775 4287857262
0.7448194 -0.10375071 -0.014873581 4285816391
0.75318581 -0.10744092 -0.014535337 4284962891
0.7342599 -0.094323605 -0.013609565 4287920988
0.74515414 -0.096566223 -0.01520569 4287394131
0.72908157 -0.08566165 -0.013579612 4288712324
0.73732734 -0.087450534 -0.014283963 4288579959
0.7286737 -0.077321559 -0.010858988 4290095509
0.73327291 -0.075999275 -0.014874243 4289307545
0.7282697 -0.069018975 -0.013692524 4290234063
0.73357517 -0.064938724 -0.014156108 4289904593
0.73342705 -0.055067435 -0.014077142 4289708243
0.74364579 -0.052241612 -0.016560541 4289379027
0.73763764 -0.044911858 -0.012474832 4289379020
0.74489456 -0.044020139 -0.014921403 4289247180
0.74717653 -0.034855917 -0.013573361 4287996598
0.75439948 -0.03659131 -0.015259427 4288326079
0.76328528 -0.033724807 -0.015997808 4287931324
0.73455662 -0.013183084 -0.01424867 4283451205
0.73531067 -0.0050856373 -0.014792295 4285359976
0.74391395 -0.0023611288 -0.015480538 4288522677
0.73580348 0.0047256378 -0.013953839 4285362815
0.74929863 0.0037299078 -0.015771806 4285362553
0.75406581 -0.11560023 -0.0023607258 4284505174
0.73993927 -0.10306458 -0.005208428 4287659642
0.74646026 -0.10356859 -0.0031773811 4287069306
0.7522468 -0.10662647 -0.0036883629 4286412929
0.73760772 -0.097033784 -0.0030746029 4288052600
0.74361396 -0.095554188 -0.0028651652 4287462766
0.73541385 -0.088323064 -0.0025299862 4288975484
0.74041319 -0.086001232 -0.0043711234 4287987303
0.72866768 -0.07726533 -0.0025277515 4288646014
0.73425251 -0.076304853 -0.003182125 4287793028
0.73290122 -0.065123886 -0.0035207181 4289180096
0.7337296 -0.056106914 -0.0026348997 4289839059
0.74260181 -0.053094238 -0.0045035733 4289444562
0.73822778 -0.04644157 -0.0023415987 4289575629
0.74812865 -0.04195876 -0.0035599743 4289050317
0.74847013 -0.033947174 -0.0013290861 4287865013
0.75439793 -0.036536321 -0.0047870274 4288589253
0.76427734 -0.035028152 -0.0046583153 4288391095
0.73554778 -0.013067024 -0.0030037174 4283782238
0.73609829 -0.0041100476 -0.002185148 4287995819
0.74469614 -0.004138317 -0.0042933594 4286876058
0.73602241 0.0019219127 -0.0012944007 4288129470
0.7545625 -0.11559059 0.006241194 4285690759
0.74645972 -0.10225865 0.0054963273 4288257711
0.75381202 -0.10791492 0.0045482442 4286677912
0.73764729 -0.097217061 0.005998333 4288914096
0.74356347 -0.095519751 0.0055030729 4289242288
0.73480481 -0.088263191 0.0058078058 4288715948
0.74015129 -0.085947245 0.0040038866 4288651688
0.72866166 -0.077209093 0.0058034854 4289241001
0.73385859 -0.076501057 0.0055555226 4288915631
0.72883517 -0.067069918 0.00388815 4290167505
0.73270571 -0.066285811 0.0047058254 4289970647
0.7330789 -0.055298042 0.0060161166 4289773779
0.74208301 -0.053051405 0.0038238005 4289444820
0.738419 -0.045640673 0.0057681049 4289444046
0.74693966 -0.04333397 0.0049498463 4289247182
0.74690568 -0.033968441 0.007150982 4288260542
0.75458598 -0.035806295 0.0044855704 4288128960
0.76077098 -0.028136194 0.0094740707 4285499808
0.73767787 -0.015752837 0.0054751867 4285035145
0.74861467 -0.013632599 0.0064159203 4284706694
0.73841989 -0.0067896959 0.0062825885 4288654271
0.7455079 -0.006897402 0.0039838441 4288656075
0.75355047 -0.11543582 0.014827238 4285756289
0.74682832 -0.10226649 0.013967544 4288588214
0.75355625 -0.10785483 0.013134963 4286875536
0.73713875 -0.097123265 0.014413242 4289444297
0.7440564 -0.095548719 0.013883836 4289115334
0.73529845 -0.08827012 0.014156188 4289772494
0.74014133 -0.085908428 0.012380935 4289839059
0.7286557 -0.077152863 0.014134724 4290233047
0.73611182 -0.075936235 0.013147747 4289971160
0.72824973 -0.068831533 0.014078267 4290233817
0.73396313 -0.064856879 0.013581535 4289970904
0.73373681 -0.056350652 0.014369179 4289839573
0.74232751 -0.053014934 0.012155211 4289444819
0.7373426 -0.046904203 0.014231327 4289510097
0.74574697 -0.045766834 0.013213141 4289378254
0.74623793 -0.036228649 0.014351594 4289444561
0.75589019 -0.035919022 0.011628377 4288852426
0.74559122 -0.02629897 0.015202686 4288129473
0.75468647 -0.027305566 0.012629177 4287077557
0.73967242 -0.015638011 0.011150265 4285758346
0.74335009 -0.01623483 0.013476792 4287075496
0.75268102 -0.017458521 0.014849305 4288389310
0.73907816 -0.0091114361 0.012768418 4290628317
0.75404519 -0.11540675 0.026305282 4285494404
0.74426597 -0.10302579 0.025256408 4288258990
0.75311232 -0.10611585 0.026215738 4287468958
0.73964256 -0.097231902 0.025720326 4289246922
0.74620032 -0.096550137 0.024093872 4289247434
0.73693866 -0.086910337 0.024943769 4289774293
0.72864968 -0.077096634 0.022465959 4290168538
0.73381436 -0.076491609 0.025412109 4290037210
0.73385394 -0.065510936 0.024679035 4290102490
0.7351169 -0.054968365 0.024948198 4289904853
0.74376678 -0.052054077 0.024227615 4289379541
0.73745978 -0.044978682 0.026503753 4289510095
0.74407387 -0.044600289 0.025171423 4289510095
0.75031149 -0.042627454 0.023971342 4289311948
0.74859506 -0.033993982 0.027002933 4288325309
0.75497735 -0.036170445 0.023209745 4289443788
0.74775207 -0.026347296 0.021513741 4290497235
0.75640678 -0.025520612 0.024493791 4284309617
0.73963648 -0.097174905 0.034165848 4289902792
0.74304378 -0.095663518 0.032597471 4289641674
0.73393774 -0.086824015 0.033207856 4290233300
0.74213493 -0.085927844 0.032019813 4289905619
0.72850633 -0.074247882 0.033555456 4290955740
0.7349112 -0.076264158 0.032642264 4290234326
0.74073541 -0.077558726 0.031845089 4289840859
0.73450166 -0.065153621 0.032546464 4290365147
0.73576647 -0.05466805 0.03291212 4290036691
0.74408758 -0.05292818 0.031667843 4289445847
0.74412531 -0.046156444 0.032805398 4289773522
0.75132304 -0.044707797 0.031884588 4289510863
0.75703591 -0.035528209 0.03268107 4288983747
