# .PCD v0.7 - Point Cloud Data file format
VERSION 0.7
FIELDS x y z rgb
SIZE 4 4 4 4
TYPE F F F U
COUNT 1 1 1 1
WIDTH 185
HEIGHT 1
VIEWPOINT 0 0 0 1 0 0 0
POINTS 185
DATA ascii
0.75299293 -0.10270183 -0.063942656 11383493
0.74984455 -0.096748091 -0.06369552 12368841
0.75365591 -0.086402684 -0.060014237 11845842
0.74786443 -0.072164826 -0.061997734 8228775
0.74212795 -0.067901924 -0.06314072 12041159
0.74613988 -0.054713629 -0.065185905 12107205
0.75289953 -0.055602051 -0.061982371 9609906
0.75163889 -0.048059598 -0.064022489 12238017
0.75682718 -0.10587157 -0.055583514 11450824
0.76837063 -0.1073598 -0.05444463 11582665
0.74984902 -0.096735425 -0.055101238 11714763
0.76040709 -0.098147862 -0.057976656 11188678
0.74362624 -0.087809987 -0.05467118 12437720
0.74234331 -0.076401047 -0.054614 12569565
0.75087333 -0.076008968 -0.058591124 11583956
0.74113142 -0.067859769 -0.054556441 12570335
0.75285661 -0.062615886 -0.055118043 11516621
0.74342245 -0.059399266 -0.054749608 12569049
0.75541151 -0.052867744 -0.059294034 10727623
0.75529897 -0.047211714 -0.056927618 11517389
0.76143044 -0.039347623 -0.056145128 12503769
0.77320665 -0.035932273 -0.057400018 12504283
0.79413265 -0.026907153 -0.055560339 9606568
0.80641955 -0.023584992 -0.053616021 10136773
0.75500751 -0.10282271 -0.043930151 11188160
0.76116437 -0.10908596 -0.044268861 10463408
0.74885291 -0.096650861 -0.043579884 11845586
0.75933337 -0.098172747 -0.049294166 11451857
0.74463385 -0.087849483 -0.043364007 11714255
0.75331491 -0.086499989 -0.048641488 12043480
0.74605221 -0.074384943 -0.044269346 10922425
0.75147301 -0.076124333 -0.049226176 12109780
0.74256837 -0.0650464 -0.043305598 9934505
0.75110853 -0.064980827 -0.047071606 11911892
0.74686015 -0.056595512 -0.043583605 9737884
0.75617921 -0.053893805 -0.0490251 11648715
0.75164926 -0.048029926 -0.043889169 10921651
0.76124173 -0.046465717 -0.047296382 11253188
0.76043642 -0.039338939 -0.044425566 10923455
0.77212554 -0.036964845 -0.04967998 10726590
0.79328656 -0.032992434 -0.049409021 9871278
0.79713643 -0.026822509 -0.046612475 11186113
0.80688441 -0.023623709 -0.047658473 11189199
0.79921573 -0.01656734 -0.047786444 9938108
0.81307459 -0.014610136 -0.044821799 11188940
0.80168009 -0.008282138 -0.043865953 7699860
0.76532298 -0.11524666 -0.035728585 8422783
0.7540099 -0.1027347 -0.035227854 11319746
0.76521969 -0.10607075 -0.036446955 10595513
0.74878657 -0.093781956 -0.035005018 11911377
0.76042706 -0.097393915 -0.03882356 11255244
0.74256444 -0.084883422 -0.03473492 10136008
0.75372952 -0.086635754 -0.037315339 10793924
0.74235356 -0.076371759 -0.034747358 6248313
0.75019765 -0.07526999 -0.036913287 4799583
0.74207234 -0.065022871 -0.03476394 6973305
0.75187606 -0.063234605 -0.037692208 5458020
0.74686456 -0.056582879 -0.035012186 6050163
0.7547316 -0.055860423 -0.036743779 5194335
0.75165373 -0.048017208 -0.03526061 8550790
0.76056755 -0.047498684 -0.036868572 8024964
0.76536989 -0.036335297 -0.032993477 8818070
0.77100575 -0.038985506 -0.037215326 10267065
0.80183536 -0.014412148 -0.037716039 11252921
0.8036831 -0.0081753414 -0.034733802 11388123
0.81512821 -0.0086852312 -0.038775377 11715546
0.76683128 -0.11536945 -0.027010597 6315611
0.75401431 -0.10272197 -0.026587861 11187908
0.76548529 -0.10808706 -0.025834726 10594227
0.7498638 -0.096693203 -0.02645365 11582924
0.76027262 -0.098481163 -0.024949912 11057094
0.74514341 -0.087850511 -0.026305676 10855852
0.75299972 -0.0867275 -0.024514649 9537943
0.74035531 -0.076277249 -0.026161689 10323833
0.75119627 -0.075893298 -0.024741504 10062199
0.74155235 -0.064042889 -0.026708117 9340286
0.75214183 -0.064257175 -0.02833344 8289929
0.74687046 -0.056566034 -0.023583623 12230001
0.75618458 -0.053167727 -0.028287511 7628384
0.75165826 -0.048004489 -0.026632048 10525074
0.7627871 -0.044781357 -0.02838772 10596549
0.76144552 -0.039304674 -0.027002303 10463415
0.77201557 -0.036734197 -0.024758572 9081760
0.80361187 -0.0050922129 -0.025511628 9016741
0.81813836 -0.0056922943 -0.026769899 10266808
0.76633459 -0.11531129 -0.018221367 5195335
0.75402027 -0.10270499 -0.015067875 11055809
0.76117939 -0.10904313 -0.015202227 10593179
0.74886769 -0.096608691 -0.014970392 11450059
0.74464852 -0.087807544 -0.014903088 7031123
0.74544847 -0.074481942 -0.015993562 12033914
0.74258304 -0.06500455 -0.01490944 9137506
0.75156921 -0.06432841 -0.019863201 10917253
0.74687487 -0.056553401 -0.015012207 10982788
0.75561029 -0.053246673 -0.019796411 9862760
0.7516641 -0.047987536 -0.015127301 10459802
0.76170212 -0.044872534 -0.019827882 10727867
0.7594499 -0.039308887 -0.018210778 10004414
0.7752685 -0.034364879 -0.014702094 7368571
0.80884176 -0.014107312 -0.016362933 4669499
0.80569094 -0.0080548562 -0.016314039 10858422
0.81960696 -0.0056965654 -0.017719138 9478576
0.75402623 -0.10268801 -0.0035478876 11187907
0.76535308 -0.10847139 -0.0064766929 10594990
0.74887359 -0.09659183 -0.0035265936 11451338
0.7602753 -0.098636113 -0.0091540907 11122375
0.7451551 -0.087816946 -0.0035247498 10790064
0.7540108 -0.086933225 -0.0089218998 9338764
0.74287039 -0.076348126 -0.0035328541 10918042
0.75098616 -0.075580016 -0.0087374402 10521980
0.74258888 -0.064987808 -0.0035494519 11114881
0.75100583 -0.066008367 -0.0051704398 9074543
0.74688077 -0.056536559 -0.0035836461 10783600
0.7545101 -0.056134142 -0.0085174022 10782819
0.75381422 -0.047013715 -0.0026684008 9868956
0.76034468 -0.047773991 -0.0084784003 8093061
0.76767761 -0.037279453 -0.0043238914 9344165
0.77586436 -0.033546541 -0.0055867583 7039851
0.80285215 -0.01432333 -0.0039499849 5921113
0.80298275 -0.006113233 -0.002936437 9344940
0.81850952 -0.0058380482 -0.0086112684 10201780
0.75603497 -0.10282565 0.0051046228 11254214
0.76631212 -0.10860002 0.0037176544 10135210
0.74988002 -0.096646756 0.0050586932 11844815
0.759431 -0.098703079 0.0023354795 11123404
0.74415791 -0.087752022 0.0050118705 11780821
0.75316572 -0.08700832 0.0024399576 11581898
0.74237406 -0.076313205 0.0049859332 11516615
0.75190794 -0.075722612 0.0025578612 11447993
0.74309367 -0.064986192 0.004975534 9670301
0.75341034 -0.063661523 0.0036276381 10328229
0.74688518 -0.056523927 0.0049877726 10130077
0.75543654 -0.056250431 0.0027724777 10392737
0.75217474 -0.047961175 0.0050090896 10988465
0.76025552 -0.047884066 0.0028750009 10461095
0.76346219 -0.039240237 0.0050670779 10463415
0.77477461 -0.035530105 0.0030534298 8621726
0.811598 -0.021036567 0.0063349493 6844551
0.80193365 -0.017418325 0.0052750623 8422802
0.81576997 -0.014940627 0.0033875227 7438220
0.80170548 -0.0082097342 0.0052616084 11254992
0.81618965 -0.0070503023 0.0024764601 9873079
0.75603944 -0.10281289 0.013767469 11253702
0.76527774 -0.10855314 0.012434848 10265773
0.74888247 -0.096566528 0.013639102 11583438
0.75886065 -0.098756865 0.010941152 11320268
0.76031137 -0.097970821 0.018629329 11320781
0.74391192 -0.087724455 0.013539825 11912149
0.75356919 -0.08715634 0.015227921 11714771
0.7408765 -0.07624121 0.013471848 11912665
0.75218737 -0.07585606 0.015282251 11846612
0.74209726 -0.06495177 0.013483629 11780051
0.75382483 -0.064717375 0.015398713 11583442
0.74688965 -0.056511294 0.013559192 11582670
0.75533676 -0.056373771 0.015491489 11385804
0.75217915 -0.047948454 0.013643364 11187398
0.76066381 -0.048005871 0.015663257 11056069
0.765535 -0.039359547 0.012702806 10397625
0.77878958 -0.033645447 0.011782306 9083833
0.79431778 -0.03288671 0.011328463 9015718
0.79616815 -0.026756417 0.014394667 8884384
0.80741239 -0.024203312 0.015275424 9411250
0.79796523 -0.018560359 0.013394359 10595519
0.81057632 -0.015256317 0.012396785 9807803
0.7560454 -0.10279586 0.025317933 11516354
0.7659952 -0.10688595 0.024803896 10201011
0.7477448 -0.090769619 0.025037829 11978198
0.75381678 -0.093469873 0.026630659 11715282
0.76123732 -0.099080384 0.028243253 11189200
0.74459845 -0.084900193 0.024930799 11978457
0.74238431 -0.076283924 0.024852576 12241113
0.75221366 -0.075984113 0.028012564 11912663
0.7433542 -0.064962327 0.02487801 11912406
0.75320387 -0.065783687 0.029981779 12306137
0.74789625 -0.056508657 0.025024397 11648719
0.75523692 -0.056497112 0.0282105 11451856
0.75218511 -0.047931485 0.025155732 11188425
0.76030946 -0.04812989 0.028434793 11122898
0.76748919 -0.039470989 0.0248465 10332863
0.77923143 -0.033718262 0.020486221 9214624
0.74059635 -0.084678464 0.033290643 13161180
0.75118273 -0.08438123 0.030768504 12438492
0.74138743 -0.076234318 0.03332255 13095387
0.74210751 -0.064922489 0.033350274 12897233
0.75669169 -0.047940772 0.033989146 11779782
