# .PCD v0.7 - Point Cloud Data file format
VERSION 0.7
FIELDS x y z rgb
SIZE 4 4 4 4
TYPE F F F U
COUNT 1 1 1 1
WIDTH 225
HEIGHT 1
VIEWPOINT 0 0 0 1 0 0 0
POINTS 225
DATA ascii
0.75688624 -0.085513413 -0.063107133 13096940
0.74449241 -0.072341047 -0.062930554 12898011
0.75132382 -0.074405052 -0.063652337 12239573
0.73941129 -0.062299248 -0.063318968 8291494
0.74267823 -0.065205425 -0.062056303 13426151
0.7414608 -0.050958496 -0.063540354 10527407
0.7437489 -0.037185833 -0.062314022 11646141
0.76586771 -0.034080252 -0.06567046 11976141
0.77560121 -0.10109112 -0.052857794 10857654
0.75727367 -0.094610669 -0.054529138 11845583
0.76867586 -0.093449354 -0.054708246 11056058
0.74681383 -0.085350461 -0.055251881 12372178
0.75758314 -0.082743868 -0.054588519 11582929
0.7638126 -0.087023355 -0.055028696 11978452
0.74477607 -0.074739181 -0.05466643 12569818
0.75808883 -0.07610596 -0.054367952 12373468
0.74514318 -0.062511049 -0.053797547 12569820
0.7538805 -0.06488733 -0.057998464 13294056
0.7379272 -0.059399158 -0.05470515 12701150
0.74269956 -0.051248949 -0.0536828 12240856
0.74252719 -0.045453981 -0.05439876 12371927
0.75152302 -0.049789645 -0.057423145 12373723
0.74492759 -0.038741425 -0.054835249 12898010
0.75256234 -0.03371441 -0.055877343 12635355
0.76388443 -0.030529546 -0.05788758 13556203
0.75258327 -0.025743522 -0.054508507 12042449
0.76919979 -0.024892382 -0.058155864 13688555
0.76000375 -0.019811872 -0.055065822 12042705
0.82160205 -0.019825382 -0.051590543 9478068
0.83254361 -0.011061037 -0.050518032 8489374
0.82084131 -0.0056143291 -0.050063822 8753553
0.7745775 -0.10102988 -0.046945985 9803418
0.75652802 -0.094516881 -0.044313204 10593962
0.76788193 -0.094804868 -0.043669123 10790827
0.7719515 -0.092319638 -0.048540402 10925245
0.74831808 -0.085375763 -0.043870829 11977422
0.75655234 -0.082721248 -0.043076791 11977424
0.76423758 -0.08885058 -0.043484081 11911370
0.74477267 -0.074715704 -0.043283667 12241113
0.7448042 -0.063465238 -0.043416247 12437978
0.75361627 -0.06358391 -0.046731234 12044506
0.73843175 -0.059350956 -0.043406878 12437720
0.74146503 -0.054062404 -0.04231995 11186889
0.74280947 -0.046457995 -0.042849224 9342109
0.75325274 -0.049892489 -0.04499957 11780558
0.74566323 -0.036976699 -0.043835215 10790063
0.75499409 -0.036473401 -0.044303861 11053492
0.76178533 -0.030649193 -0.049305957 11123149
0.75406897 -0.026761176 -0.0423383 10853278
0.77182353 -0.022108259 -0.049775794 10660797
0.76098686 -0.019816549 -0.043529835 10922674
0.81952763 -0.014574536 -0.046281714 10463673
0.82064569 -0.010385927 -0.04527735 10069431
0.83560073 -0.01098923 -0.041507006 11977683
0.78117317 -0.0013659387 -0.047704384 9015448
0.82283288 -0.0055454057 -0.043898329 8162457
0.83793503 -0.0049394919 -0.041501679 8950436
0.75429481 -0.091434821 -0.035512522 11189187
0.76532865 -0.094871707 -0.036793727 10067620
0.77186728 -0.092458315 -0.031169729 10660271
0.74732167 -0.085285753 -0.035210744 11517902
0.75552642 -0.08269047 -0.034445059 11912660
0.76424283 -0.087175794 -0.034965809 11320270
0.74443334 -0.074682243 -0.034731567 12109782
0.75794709 -0.077655599 -0.034582283 11846102
0.74586624 -0.062587716 -0.034054294 12306645
0.75397676 -0.066454612 -0.033724215 11847129
0.73843515 -0.059312683 -0.034904107 12174558
0.74260992 -0.055489853 -0.036738232 10461891
0.74238944 -0.045437567 -0.034536839 5655147
0.7549836 -0.049988311 -0.032518782 7698077
0.74526006 -0.036781929 -0.034908157 6576496
0.7543875 -0.035288006 -0.033392362 6378089
0.76275986 -0.03071289 -0.03812506 8157831
0.75656646 -0.026702341 -0.035252135 5324368
0.76585144 -0.023370257 -0.037273273 8749446
0.75996953 -0.019869469 -0.034772597 10394263
0.77856064 -0.019191094 -0.038719364 10067888
0.82592964 -0.010655268 -0.036621112 11516618
0.83148509 -0.011546229 -0.031641655 10331559
0.82759988 -0.003264701 -0.033612967 10002867
0.75653499 -0.094438478 -0.026896238 9605779
0.76683962 -0.09478388 -0.026241202 9013380
0.7723307 -0.092555724 -0.022497881 10199977
0.74732512 -0.08524701 -0.026605116 11715026
0.7575348 -0.082825176 -0.025941052 11715538
0.76356661 -0.087626904 -0.024139285 11320778
0.73938888 -0.070651114 -0.02638955 12174808
0.74695718 -0.07667914 -0.026103675 12109265
0.7586453 -0.077791907 -0.021868717 11583954
0.7466526 -0.065439135 -0.025592921 12568532
0.75366324 -0.063791037 -0.021498699 11317692
0.73843855 -0.059274405 -0.026401337 11449279
0.74271673 -0.055523068 -0.025469631 10986919
0.75492853 -0.05008138 -0.021326918 7759716
0.74238402 -0.045430429 -0.026028331 9995122
0.74559259 -0.036762442 -0.026361948 9601392
0.75358367 -0.035354022 -0.023481429 9139559
0.76372743 -0.030788006 -0.025513753 7958389
0.75405735 -0.026753049 -0.026483182 9072994
0.76656222 -0.023995847 -0.02620131 8418932
0.76045614 -0.019880097 -0.026086524 9277085
0.83147436 -0.011564242 -0.025295019 9080461
0.82923114 -0.0076236585 -0.02595238 10465209
0.8426342 -0.0078035146 -0.024810791 9477546
0.82614344 0.00085567567 -0.025143046 6776179
0.84535319 0.0012684665 -0.020118076 5984869
0.75678897 -0.094411187 -0.016730882 8816009
0.76732653 -0.094851956 -0.014667653 9606032
0.77178305 -0.092597 -0.013799058 10923178
0.74965447 -0.087235369 -0.014209352 11648974
0.75549269 -0.082747236 -0.014445167 11845841
0.76504815 -0.08776214 -0.012673264 11189197
0.73939335 -0.070603795 -0.015033456 11780305
0.74669719 -0.076657608 -0.014709633 11977941
0.75859118 -0.077878736 -0.010528225 11780819
0.74432009 -0.062602744 -0.014226838 7693689
0.75480425 -0.065270767 -0.011728482 9341865
0.73744309 -0.059210338 -0.015043966 7165020
0.7414223 -0.054134313 -0.016982947 9528666
0.75538629 -0.050169028 -0.010148244 11247754
0.74261475 -0.046467885 -0.014522222 11573097
0.74557322 -0.037378915 -0.015035326 8809052
0.75418794 -0.035408169 -0.012180091 9468007
0.76365238 -0.030911619 -0.010030619 10062712
0.75530338 -0.02671648 -0.014972365 9272684
0.76260614 -0.021610932 -0.018649042 9475223
0.77137208 -0.022439338 -0.0100377 9078148
0.76113707 -0.016990107 -0.01595426 8421762
0.7794956 -0.019310325 -0.018715858 8359071
0.8294493 -0.011671624 -0.012572953 8026746
0.82830894 -0.0060755694 -0.016415672 8686226
0.84230846 -0.0079264659 -0.010909652 8491420
0.84324932 0.0010931836 -0.013895119 5984851
0.75629377 -0.094325744 -0.0051114243 9211803
0.76851988 -0.093707785 -0.0055341544 10198948
0.77172691 -0.092689455 -0.0022186099 10791861
0.74899244 -0.087149508 -0.0026937989 11714767
0.75648475 -0.082834922 -0.0030236766 12107730
0.7621451 -0.08883962 -0.0030511701 11844814
0.73989797 -0.070562974 -0.0036818211 12043224
0.74541503 -0.077501833 -0.0034307141 11977942
0.74473429 -0.063582785 -0.0019993298 11977172
0.75629592 -0.069500886 -0.0047560264 11781335
0.73844761 -0.059176125 -0.0037234526 10723246
0.74268156 -0.050462868 -0.0019598419 11051165
0.74236941 -0.045411386 -0.0033389837 10193539
0.74618578 -0.036074784 -0.0032219531 10389368
0.75008959 -0.031626254 -0.005737714 11111022
0.75479436 -0.026716996 -0.0034185664 8613202
0.76461357 -0.021466369 -0.0010979351 9935002
0.75991577 -0.019959975 -0.0028832494 7764876
0.82554412 -0.011445427 -0.0031998297 9147291
0.82705951 -0.0045390213 -0.0068971291 9015706
0.76625317 -0.095024697 0.0047571561 9476510
0.77874738 -0.093176894 0.0094396621 10004410
0.75314164 -0.085487522 0.0052696592 11714511
0.76560932 -0.08750084 0.0052236984 11188424
0.74263227 -0.074899092 0.0048731212 12043992
0.75610352 -0.07671608 0.0052191149 11846357
0.74428684 -0.062658817 0.0055330554 12371415
0.7545917 -0.065408617 0.0058388445 11912407
0.73945093 -0.059154585 0.0047818511 12240857
0.74360609 -0.051426932 0.0055671181 11911121
0.75428736 -0.050297052 0.0052489359 11317953
0.74261397 -0.045403667 0.0051710857 11185595
0.74658185 -0.036681052 0.0050286613 9406358
0.75514627 -0.036781389 0.0054661408 9999259
0.76254857 -0.031060794 0.0054520871 10459043
0.75453877 -0.026715972 0.0052407803 9143688
0.76679921 -0.024102392 0.0052701919 9275796
0.75990105 -0.019984659 0.0058138468 9606315
0.77731359 -0.019585546 0.0056209988 9409956
0.82203472 -0.01104063 0.0057172524 10001835
0.8364262 -0.011283958 0.0014136615 8884125
0.82559085 -0.0039792266 0.0032586476 8885411
0.83876199 -0.0052272254 0.0014723879 10398143
0.82408983 0.00066451589 0.0064207409 7173254
0.75431335 -0.091226287 0.010810817 11582150
0.76478171 -0.096240237 0.012626993 9079954
0.74899936 -0.087071858 0.014555547 11452360
0.75797284 -0.082966678 0.014177126 11977936
0.76427704 -0.085645415 0.016703606 11254735
0.7399047 -0.07049007 0.013358023 12044763
0.74536657 -0.07924252 0.013496668 12043992
0.75396216 -0.073782936 0.016407745 11912922
0.74578512 -0.062724188 0.014031159 12241369
0.75428551 -0.065489717 0.01636122 11978458
0.73945433 -0.059116259 0.01329605 12175581
0.74434763 -0.051465958 0.014055211 11912406
0.75473952 -0.050390411 0.017844742 11715543
0.74329895 -0.045549762 0.014200839 11583441
0.74724931 -0.036659777 0.01361322 11253190
0.75472635 -0.035551891 0.016129658 11253448
0.7645582 -0.031088481 0.015324896 10465215
0.75403154 -0.026718872 0.013886028 10660794
0.76831424 -0.025518896 0.018250078 10332604
0.76308668 -0.017009664 0.016051054 10263984
0.7772513 -0.019688187 0.018477581 9738657
0.81651962 -0.012827125 0.011933723 10265524
0.83224738 -0.011548854 0.010584069 9803434
0.82073551 -0.0057922946 0.012640601 8159637
0.75532001 -0.091206573 0.028219074 11516873
0.7689178 -0.093922488 0.026297672 10068647
0.77464724 -0.093043998 0.021021349 10462392
0.74966985 -0.087062694 0.024149626 11714254
0.75795346 -0.082999207 0.025639921 11911891
0.7654224 -0.08801844 0.027633116 11385796
0.74364007 -0.074852541 0.02485938 12306907
0.75456965 -0.076185077 0.027296202 11912921
0.74677455 -0.062785171 0.025382241 12241627
0.75511539 -0.0656095 0.029036388 11913179
0.73949498 -0.050563809 0.021771906 12240345
0.74239373 -0.055290852 0.025024423 12175324
0.75468445 -0.050483413 0.029028984 11846359
0.74435353 -0.044913892 0.025562631 11846612
0.74691099 -0.036637876 0.025038904 11516872
0.75544792 -0.035603877 0.027481273 11254217
0.76348859 -0.031181317 0.023750767 11121861
0.75477588 -0.026692595 0.025449779 10660798
0.76508933 -0.022307267 0.027020609 9542574
0.7662763 -0.014019029 0.023442583 7631749
0.77374148 -0.016825072 0.028249174 8554137
0.74326909 -0.055291459 0.033568785 13161181
0.76447618 -0.031223513 0.032238442 11319243
