# .PCD v0.7 - Point Cloud Data file format
VERSION 0.7
FIELDS x y z rgb
SIZE 4 4 4 4
TYPE F F F U
COUNT 1 1 1 1
WIDTH 169
HEIGHT 1
VIEWPOINT 0 0 0 1 0 0 0
POINTS 169
DATA ascii
0.76943827 -0.097117297 -0.062225569 13555685
0.75578064 -0.087942019 -0.066848263 10592950
0.76190352 -0.088328533 -0.061739273 14081256
0.74673498 -0.070369415 -0.062510468 13819626
0.75848132 -0.079883806 -0.061575245 14082280
0.7476474 -0.064747706 -0.062586673 13424872
0.75215328 -0.064050607 -0.062206469 13424100
0.74349058 -0.054771867 -0.062239446 13556203
0.75237429 -0.052110076 -0.06144473 13819373
0.74429297 -0.042105306 -0.062306445 13360107
0.75764203 -0.041030306 -0.062004589 13096936
0.76486164 -0.032560229 -0.062686168 13029863
0.76999253 -0.026791841 -0.063167356 13094112
0.76314008 -0.096979246 -0.05233153 11321295
0.77301979 -0.096007295 -0.053952016 10396588
0.75591081 -0.082170114 -0.054698773 11649228
0.76195365 -0.086480029 -0.052981719 11517640
0.74772549 -0.070419215 -0.054102652 12175323
0.75472724 -0.077599928 -0.054211199 11978197
0.74360609 -0.062757336 -0.054742575 12504540
0.75304371 -0.068665169 -0.052893337 12504799
0.74397892 -0.054796591 -0.0524203 12504798
0.75274557 -0.057649858 -0.052993141 12701409
0.7561413 -0.045212597 -0.053361658 12503514
0.74623889 -0.039287325 -0.053991769 12438237
0.75310636 -0.030708835 -0.054479692 12240599
0.76482582 -0.032569155 -0.054091968 12107984
0.75701672 -0.024913333 -0.054764409 12371161
0.77554375 -0.023798862 -0.054918174 11384004
0.76492149 -0.018940732 -0.052434523 11581126
0.7680909 -0.094456345 -0.043949787 9079948
0.77397376 -0.097480007 -0.042576849 8816005
0.75489593 -0.08213146 -0.043194223 11714506
0.76258898 -0.086532928 -0.042591821 10791343
0.74771172 -0.07043422 -0.042780764 12372184
0.75488269 -0.07670407 -0.042455569 12109268
0.74525797 -0.062823825 -0.041695878 12372700
0.75434345 -0.069643185 -0.042696934 12306908
0.7434684 -0.054796115 -0.043940425 12372444
0.75422531 -0.057696577 -0.041862629 12241370
0.75525749 -0.047551244 -0.04293859 12240341
0.74772543 -0.039295431 -0.042768531 11846094
0.75209254 -0.030738696 -0.043013327 9737116
0.76321793 -0.035412133 -0.042526279 9933728
0.75930452 -0.022952791 -0.042460289 9670038
0.77192944 -0.026774395 -0.043061942 10061459
0.76491445 -0.018948415 -0.046636444 11185336
0.77496469 -0.097567454 -0.034040347 8287847
0.75488549 -0.082142822 -0.034622807 11910592
0.76392126 -0.088448152 -0.034335494 9141874
0.74824619 -0.073302515 -0.03431581 12043988
0.75836408 -0.079913005 -0.033461228 11846859
0.74456698 -0.061873578 -0.034141794 12306649
0.75434715 -0.067815334 -0.035241298 12306651
0.74439085 -0.050598763 -0.034127068 12044247
0.75317276 -0.057683196 -0.033389788 12306392
0.7554034 -0.046634994 -0.033555672 11780306
0.74771512 -0.039306693 -0.034271404 11648980
0.75408214 -0.030720573 -0.034555636 5392758
0.76318216 -0.035421036 -0.03395493 6578829
0.7594468 -0.021996809 -0.034794234 5656425
0.77445012 -0.023850499 -0.034502599 6510435
0.78002632 -0.10074576 -0.028472491 7499098
0.76706851 -0.094410382 -0.026471889 7366751
0.77494085 -0.096650787 -0.024497975 8481112
0.75687712 -0.082261883 -0.02611958 10658973
0.76288003 -0.086575128 -0.024594918 10461341
0.74873626 -0.073333085 -0.025835719 11912658
0.75783938 -0.078978747 -0.025954753 12240851
0.74455673 -0.061884783 -0.025684662 12175835
0.75496614 -0.06876485 -0.024976593 12175321
0.74338025 -0.050598033 -0.0256359 11978198
0.75313771 -0.05769195 -0.024972716 12174808
0.75642043 -0.044474069 -0.025764197 10921132
0.7477048 -0.039317951 -0.025774274 11514559
0.75407177 -0.030731931 -0.025984222 8549241
0.76571804 -0.032587234 -0.025475617 9335899
0.75698191 -0.024951346 -0.026078744 9794395
0.77389431 -0.024831809 -0.024790924 8810581
0.76588953 -0.018945361 -0.026373314 7696495
0.77488112 -0.097588271 -0.014000531 8091242
0.75486124 -0.082169324 -0.014622838 11189192
0.76217276 -0.086545408 -0.014140253 11384252
0.74767739 -0.070471726 -0.014476049 12175066
0.75480676 -0.076737523 -0.014170009 11977427
0.74522603 -0.062858723 -0.01536449 12240603
0.75466484 -0.068770029 -0.013748942 12109528
0.74345285 -0.056244597 -0.012974698 12175063
0.75359923 -0.057712808 -0.013755948 12174810
0.74432284 -0.047806215 -0.014390081 11649238
0.75573683 -0.045413971 -0.014129079 7166568
0.74819118 -0.039333235 -0.014454161 6705504
0.75305796 -0.030761771 -0.014533091 11508847
0.76567024 -0.032599151 -0.014001438 11572853
0.75896752 -0.024921928 -0.014641994 9334360
0.77180868 -0.026804466 -0.014109827 7622201
0.76687515 -0.018930817 -0.01478446 9403766
0.7788918 -0.10069413 -0.002552164 6576990
0.7650345 -0.094306737 -0.00035036574 7240831
0.77077752 -0.094521202 -0.0025462538 8353400
0.75484741 -0.082184471 -0.003194283 11516612
0.7621367 -0.08655832 -0.0027676302 11055804
0.74766368 -0.070486732 -0.0031541621 11912664
0.75477636 -0.076750897 -0.0028557833 11912660
0.74452937 -0.061914667 -0.0031323186 12175321
0.7548731 -0.068791933 -0.0025310866 12175063
0.74485338 -0.050643951 -0.0031174661 12174295
0.75507861 -0.057759635 -0.0025302002 12109271
0.75578171 -0.046672668 -0.0025257533 11976914
0.74817741 -0.03934826 -0.0031170368 10922169
0.75304413 -0.030776886 -0.0031273938 10457743
0.76305115 -0.035453677 -0.0025266467 10787741
0.75925565 -0.023006175 -0.002175909 9008243
0.7717604 -0.026816493 -0.0025289792 10456968
0.76386559 -0.019032111 -0.0060425168 9931108
0.7788558 -0.10070309 0.0060763285 7699588
0.76097763 -0.091158196 0.0054127052 9014934
0.77074188 -0.094530083 0.006002239 10198944
0.75683892 -0.082303643 0.0053927517 11320521
0.76372218 -0.085776284 0.0059453929 11385291
0.74765337 -0.070497982 0.0053372537 12109272
0.75423253 -0.076735564 0.0056248242 12043222
0.7455197 -0.06195692 0.0053326506 12240857
0.75432795 -0.068780154 0.0058805402 12175579
0.74534333 -0.050666884 0.0053473981 12043480
0.75453448 -0.057755422 0.0059061851 12175322
0.75625342 -0.046683166 0.0059481859 11911634
0.74666697 -0.039366283 0.0053739785 11779793
0.75403363 -0.03077358 0.0054443022 11318718
0.764027 -0.035450958 0.0060556 11186879
0.76039761 -0.022027932 0.0055069448 10264490
0.77172422 -0.026825514 0.006156655 8290444
0.76802391 -0.094529532 0.011276794 7698820
0.77173144 -0.09461005 0.014576839 10462630
0.75682849 -0.082315028 0.013987024 11386056
0.7630989 -0.086640574 0.01431131 11253957
0.74864388 -0.070547909 0.013844118 12175321
0.75473082 -0.076770969 0.014115554 11978196
0.74550945 -0.06196814 0.013801209 12175579
0.75531244 -0.068826161 0.014314199 12240857
0.74501318 -0.051613636 0.01474544 12109787
0.75322831 -0.057739235 0.014313452 12306392
0.74329185 -0.047831632 0.010965819 12175063
0.75519145 -0.047610376 0.013457627 11977687
0.74840677 -0.039367139 0.013896341 11911380
0.75402325 -0.030784938 0.014015718 11516617
0.76373863 -0.035464652 0.014633749 11451337
0.75990117 -0.023014219 0.015104258 10661823
0.77406073 -0.024862638 0.015875192 10266295
0.76484412 -0.019025249 0.011344423 10988217
0.77168387 -0.094621897 0.025982447 10528163
0.7568146 -0.082330212 0.02544605 11386312
0.76352042 -0.086068727 0.026034558 11385539
0.74762934 -0.070524238 0.025150556 12175577
0.75545692 -0.076817632 0.02404899 11912665
0.745996 -0.061994851 0.025111783 12307166
0.75552064 -0.068848088 0.025556818 12175834
0.74336618 -0.053476341 0.022219397 12306649
0.75445241 -0.057775859 0.025586003 12307161
0.74497002 -0.049744386 0.026039314 12371418
0.75617099 -0.046703704 0.025721338 11977941
0.74864298 -0.039382324 0.025244959 11911892
0.75717884 -0.034557689 0.025686061 11648203
0.76550275 -0.032640863 0.026158191 11385028
0.75922322 -0.02304684 0.024678646 10727618
0.77165174 -0.026843555 0.023527924 10727616
0.76482302 -0.019048302 0.028738679 10332599
0.7491771 -0.042235464 0.033770893 13160669
0.75408822 -0.036525022 0.034008224 12962775
