# .PCD v0.7 - Point Cloud Data file format
VERSION 0.7
FIELDS x y z rgb
SIZE 4 4 4 4
TYPE F F F U
COUNT 1 1 1 1
WIDTH 186
HEIGHT 1
VIEWPOINT 0 0 0 1 0 0 0
POINTS 186
DATA ascii
0.76992029 -0.047322456 -0.075093582 12174027
0.76747179 -0.12706402 -0.061979413 12833762
0.75142509 -0.11131199 -0.060740054 13425124
0.74505955 -0.10237085 -0.060264174 14017258
0.75939095 -0.10324292 -0.061154112 12766173
0.74478817 -0.093496889 -0.062501878 11976138
0.75283504 -0.099159963 -0.060161799 12764630
0.73648494 -0.082868926 -0.062129155 9805232
0.74267232 -0.076134399 -0.064002067 9608885
0.74704307 -0.065247506 -0.061368585 12109268
0.7414574 -0.057603069 -0.061006475 13358046
0.75748229 -0.04715386 -0.062588215 13094612
0.76177943 -0.046791594 -0.065302879 12832216
0.77204376 -0.030552488 -0.06417691 11910602
0.76083159 -0.12069049 -0.052845895 10726081
0.77050883 -0.12741208 -0.056416806 10596048
0.75807261 -0.11371224 -0.054154813 10990018
0.76376641 -0.11157575 -0.055216398 13029336
0.74707216 -0.1025518 -0.051951237 11779783
0.75291967 -0.1057165 -0.053001862 11910858
0.76432931 -0.10415897 -0.056368511 10990531
0.7447632 -0.092857607 -0.053350765 12635354
0.7528069 -0.09631291 -0.054523978 12174034
0.74246305 -0.083069257 -0.055670802 12832476
0.73998129 -0.075627401 -0.059136577 11843269
0.74304044 -0.0734424 -0.053842902 12569822
0.73792905 -0.065628447 -0.051934347 12306652
0.7456488 -0.064204223 -0.053724222 12174806
0.74296546 -0.052039914 -0.055685557 11910606
0.75165612 -0.054061357 -0.054143742 12109013
0.75512332 -0.045115966 -0.054454256 12437722
0.76083684 -0.044038504 -0.055262383 12108759
0.76519382 -0.037254002 -0.056599922 12109268
0.7720148 -0.030552872 -0.058401745 13490147
0.76182985 -0.12081885 -0.041417114 8883336
0.75683153 -0.11360669 -0.042546518 9145222
0.74705631 -0.10257533 -0.040644601 9076880
0.75202233 -0.1046677 -0.041476857 10725035
0.76428723 -0.10415953 -0.047985762 10923183
0.74439204 -0.09305869 -0.042905599 12108494
0.75332618 -0.092661388 -0.047453344 11911375
0.74448961 -0.082532249 -0.043547481 12372698
0.73967457 -0.073691517 -0.049685884 12766943
0.74375266 -0.073362023 -0.043547284 12306907
0.74538809 -0.063301884 -0.042938612 12174806
0.74946564 -0.052426595 -0.04306338 11779790
0.75436342 -0.052079976 -0.041230202 11582414
0.74717283 -0.047275245 -0.048429362 12174803
0.75529855 -0.045094851 -0.044004757 11582668
0.76206362 -0.044058159 -0.045282852 11055042
0.76385152 -0.035194587 -0.046843693 10594999
0.77436668 -0.033812575 -0.042969458 9344412
0.76283199 -0.1209413 -0.032834031 8356224
0.75665379 -0.11269087 -0.035026785 8355968
0.7669822 -0.11924317 -0.035772294 8226192
0.74704438 -0.10259298 -0.03216463 7297631
0.75344181 -0.10572033 -0.032946933 8420992
0.76401043 -0.10325231 -0.035879638 9802900
0.74469888 -0.093061134 -0.033279158 10394265
0.75306463 -0.094786026 -0.033797074 8946041
0.74325675 -0.083156563 -0.033483613 12109008
0.75020432 -0.081873782 -0.039145805 12306644
0.73953688 -0.072682798 -0.035062533 12372442
0.74426168 -0.072783157 -0.034060832 12175322
0.74464947 -0.062483817 -0.034332238 12043478
0.74415821 -0.052914388 -0.03537935 11846354
0.75260574 -0.051738266 -0.032542914 11451339
0.7471931 -0.047222279 -0.035572343 11255757
0.75484514 -0.044788171 -0.034818944 11581124
0.76379806 -0.042923361 -0.034571346 8816538
0.75727057 -0.035620857 -0.03181693 4735590
0.76719284 -0.037186965 -0.036612272 6643051
0.76562691 -0.12410687 -0.024284767 6774351
0.75910115 -0.11379731 -0.025356648 8220251
0.74703252 -0.10261064 -0.023684654 10586481
0.75320005 -0.10568935 -0.024326781 9929839
0.76743954 -0.1071094 -0.024320785 8942691
0.74538386 -0.094607353 -0.024594601 10919300
0.74192172 -0.083273001 -0.023931593 12108752
0.73805726 -0.072581381 -0.022279069 12240858
0.74254256 -0.073626094 -0.025105074 11978200
0.74416906 -0.062088639 -0.024342038 11846099
0.74385524 -0.050963536 -0.023529332 11582927
0.75145555 -0.055028357 -0.024865566 11517131
0.75475878 -0.045049738 -0.023158604 10725557
0.76197994 -0.042625207 -0.02450395 9209487
0.75928438 -0.035553865 -0.023201242 7297377
0.76730728 -0.037184056 -0.025830651 6378342
0.77800506 -0.030506345 -0.025415063 6905947
0.76459742 -0.12401202 -0.014149788 5063488
0.75629067 -0.11209375 -0.015526794 6969941
0.76200932 -0.11289564 -0.015062433 6511444
0.77291226 -0.11297752 -0.017409807 5654841
0.74752271 -0.10267507 -0.012385494 11779016
0.75422078 -0.10575688 -0.012867575 10133926
0.76087546 -0.10121308 -0.01997138 10261390
0.74490869 -0.093048438 -0.014004068 11449275
0.75281191 -0.095796876 -0.015506735 10790573
0.74331713 -0.082869336 -0.014408001 12043734
0.74287391 -0.073172271 -0.014427536 12043993
0.74460858 -0.062914684 -0.014060156 11780564
0.7441963 -0.052814774 -0.011198631 11386574
0.7520678 -0.052240409 -0.013623023 7430517
0.74721789 -0.047157545 -0.019858211 11253963
0.75570625 -0.043601029 -0.013654156 8547696
0.76031798 -0.04645877 -0.012610533 10061175
0.75830257 -0.035521708 -0.011572097 10455152
0.76889861 -0.038140643 -0.01515582 9206362
0.7761761 -0.03139089 -0.012336682 5325891
0.76278758 -0.12100725 -0.0011541245 6512743
0.75819433 -0.11488458 -0.0011287704 6838365
0.762043 -0.11286787 -0.0033901327 6510423
0.7480129 -0.10273952 -0.0010749043 10462891
0.75373787 -0.10433766 -0.0044076727 9013904
0.76841283 -0.10720609 -0.0089147585 10261383
0.74465811 -0.093105704 -0.0019781741 11780817
0.75313193 -0.092663974 -0.0087604914 11714509
0.74384302 -0.082496919 -0.0043488801 12043991
0.74287009 -0.073181346 -0.0045630084 11978457
0.74598241 -0.063560516 -0.0037783727 11846100
0.75272244 -0.054130763 -0.0035086807 10989506
0.74724036 -0.047098696 -0.0055726343 9737900
0.75731301 -0.046863429 -0.0062353411 10396337
0.76170874 -0.044101086 -0.0050814063 8944773
0.76540464 -0.035940927 -0.0045881518 8812651
0.77172488 -0.030556701 -0.00065008621 6512226
0.76277542 -0.12102523 0.0074858489 7960444
0.7591958 -0.11499949 0.0074733738 9605526
0.76146847 -0.11195435 0.0072051594 7896197
0.74800104 -0.1027572 0.0074164979 11516875
0.75520104 -0.10459937 0.0048679034 9673120
0.76783121 -0.10715902 0.0023134199 8289152
0.74567628 -0.093963802 0.0054104272 10858431
0.75264108 -0.095745116 0.0056229671 11385029
0.7438758 -0.083120957 0.0048132306 12043990
0.73959923 -0.072518706 0.0045380304 12109529
0.74437475 -0.072457612 0.0049615838 12043736
0.74434769 -0.062481482 0.0047731898 11846357
0.74439424 -0.051799715 0.0049225884 11582927
0.75185806 -0.055048365 0.0056346953 11385548
0.74726284 -0.047039844 0.0087129427 11253960
0.7552914 -0.044566106 0.0047673257 10857917
0.76202917 -0.041713323 0.0022414958 10857665
0.76555318 -0.036561247 0.0053665619 9671576
0.76479173 -0.12125244 0.016164418 7829632
0.75817025 -0.11492036 0.016059749 9343129
0.76173782 -0.11194673 0.01595692 7764360
0.75432825 -0.10571776 0.01587024 10924733
0.76423407 -0.10418669 0.014890721 10593706
0.74613696 -0.094232522 0.016067011 11780306
0.75314546 -0.092678413 0.014740705 11714510
0.74518216 -0.082674757 0.015259827 12043991
0.74401665 -0.072285362 0.014660575 12043992
0.74612266 -0.062870622 0.015273094 11846614
0.74524117 -0.05270458 0.017274786 11780051
0.75202119 -0.055236202 0.014931303 11517135
0.75473928 -0.046908159 0.015198953 11188168
0.76247942 -0.042668849 0.015722692 10595262
0.76701212 -0.03678314 0.015083708 10068658
0.77367514 -0.030541819 0.019609485 8028054
0.76477557 -0.12127648 0.02771486 7698306
0.75815415 -0.11494422 0.027518757 9408411
0.76376134 -0.11208059 0.026215412 7962766
0.74746078 -0.10089301 0.026279684 11845584
0.75338334 -0.1052554 0.026094822 11122627
0.76326758 -0.10452455 0.028118096 10660786
0.74557936 -0.093620904 0.027442655 11781075
0.75452113 -0.092783913 0.027220739 11846090
0.74280697 -0.083237857 0.026952481 12110043
0.75037938 -0.081911385 0.02992023 12241110
0.74380755 -0.073170125 0.027667126 12241115
0.74545532 -0.063458756 0.027639151 11978199
0.74425459 -0.052662376 0.025795296 11715028
0.75251275 -0.054126691 0.026691647 11582415
0.74728417 -0.04885824 0.029672988 11582929
0.75344896 -0.045514293 0.028181762 11319496
0.76165056 -0.04370679 0.026113508 10397367
0.76645517 -0.037131164 0.026638633 10200242
0.77363151 -0.030542396 0.028295089 7633803
0.74648774 -0.093512222 0.032726042 11912399
0.74268144 -0.074491769 0.03336468 12242138
0.74363065 -0.062248059 0.0352403 12635867
0.75095385 -0.052242722 0.033489339 11190223
0.75700116 -0.047160223 0.033258192 11714511
0.76169479 -0.042758659 0.03225119 10859462
0.76534474 -0.03713654 0.032386422 10135222
