# .PCD v0.7 - Point Cloud Data file format
VERSION 0.7
FIELDS x y z rgb
SIZE 4 4 4 4
TYPE F F F U
COUNT 1 1 1 1
WIDTH 214
HEIGHT 1
VIEWPOINT 0 0 0 1 0 0 0
POINTS 214
DATA ascii
0.76663506 -0.083651245 -0.062182914 10328476
0.77111948 -0.081326038 -0.060849432 12698308
0.7569657 -0.075763337 -0.063018329 8287347
0.76353836 -0.077467307 -0.060341954 12634052
0.75376493 -0.064647429 -0.063073985 11380911
0.76005262 -0.069971129 -0.060139377 14015716
0.7544567 -0.057481267 -0.063492857 11382199
0.75427854 -0.040840197 -0.063298196 11713736
0.75370103 -0.031968135 -0.06023122 13492203
0.75685453 -0.025726512 -0.060478721 13491689
0.76023173 -0.020887125 -0.063769691 12898518
0.76909733 -0.015122275 -0.06173677 13490147
0.76620668 -0.084188677 -0.054291211 10727869
0.77413386 -0.084683076 -0.052570686 10660279
0.75722969 -0.073140435 -0.055068418 12240335
0.76446939 -0.074953474 -0.052948005 11647687
0.74722505 -0.06092592 -0.053909026 12569048
0.75485814 -0.063811466 -0.054813564 12701145
0.76365781 -0.068874352 -0.055812359 12831967
0.74917507 -0.058302123 -0.050967582 12176092
0.7535221 -0.052782644 -0.055097621 12964577
0.74660301 -0.046831112 -0.053724322 12306907
0.75208378 -0.041725285 -0.055489291 13030115
0.74652267 -0.036866985 -0.053784724 12832735
0.75561005 -0.033306628 -0.054924838 12701408
0.74779713 -0.026789647 -0.054048244 11977427
0.75543988 -0.027490025 -0.053863406 12503514
0.76088148 -0.022482673 -0.053265635 11911378
0.75673401 -0.015034333 -0.054719772 11911890
0.76615763 -0.01716651 -0.054507952 11845842
0.77236176 -0.013545289 -0.052903175 11254216
0.77484876 -0.0093372306 -0.053565502 11385032
0.77078849 -0.091009922 -0.04658423 8883858
0.76431471 -0.083735973 -0.042366344 10264485
0.77422613 -0.084466256 -0.043501802 9936287
0.75725573 -0.073962323 -0.041974146 9210764
0.76445639 -0.074963674 -0.042287137 10330019
0.75415605 -0.063681617 -0.043603707 11712965
0.76265675 -0.068805031 -0.044306047 11846347
0.74614155 -0.059987329 -0.041518874 9276310
0.75484371 -0.052825265 -0.04350974 11911629
0.74618429 -0.046826225 -0.042334009 12241112
0.75584924 -0.043521583 -0.043750603 11978459
0.74676907 -0.036871318 -0.042420939 12174807
0.75466359 -0.034878179 -0.044057775 12043994
0.74598736 -0.029708955 -0.042512193 11977172
0.75566447 -0.026624689 -0.042826574 11779795
0.76224762 -0.020940781 -0.044000335 11517132
0.75517917 -0.018016201 -0.043056246 11121606
0.76530784 -0.015466106 -0.042411573 10792638
0.77242684 -0.014411369 -0.04436725 10924485
0.77717614 -0.091613635 -0.032191277 8225916
0.76762033 -0.084469646 -0.034741741 9144968
0.77368575 -0.084304124 -0.03420677 8882826
0.78082579 -0.087476581 -0.03868071 8026495
0.75636333 -0.072987117 -0.033333074 8552069
0.76445472 -0.07497862 -0.033766638 8420487
0.74770808 -0.06098428 -0.034013882 7498097
0.75395149 -0.064598553 -0.035708651 8748934
0.7631464 -0.065969847 -0.035745114 8815251
0.74917811 -0.058280006 -0.036719978 8749701
0.75391471 -0.053243585 -0.035363119 11447981
0.74568385 -0.046828032 -0.033790845 12306385
0.75352985 -0.042578496 -0.035164908 12109014
0.74601531 -0.036882281 -0.033852752 11847122
0.75621057 -0.032105148 -0.034636512 11715028
0.74777806 -0.026837774 -0.034048311 11648463
0.75666893 -0.027643615 -0.035190802 11648723
0.76359183 -0.021776 -0.036019363 11253707
0.75646502 -0.015096863 -0.034455106 10332086
0.76586217 -0.016893651 -0.034307204 10727359
0.77275038 -0.013784515 -0.034533076 10859201
0.77583945 -0.0093836021 -0.036177997 9015201
0.78357697 -0.0062644379 -0.030651482 7170936
0.77803743 -0.094539046 -0.021999296 6575948
0.767281 -0.084915236 -0.026044335 8156014
0.77335083 -0.084365025 -0.024775276 8549483
0.7584911 -0.073031507 -0.024534279 10391920
0.76540595 -0.07658232 -0.024785548 9930082
0.7476998 -0.061004836 -0.025471048 10719341
0.75378329 -0.065098919 -0.024082277 10325634
0.76239598 -0.065916114 -0.02714967 10654854
0.7491805 -0.058262311 -0.025321897 11247489
0.75425798 -0.053011876 -0.024590492 11052697
0.74676466 -0.046825286 -0.025315672 11844546
0.75364256 -0.042858683 -0.025524998 11320262
0.74651229 -0.036880925 -0.025344789 11846356
0.75639898 -0.032769829 -0.024588898 11583699
0.74776995 -0.026858401 -0.025476906 11582668
0.75651926 -0.026728818 -0.025025725 11516624
0.76123345 -0.023899825 -0.025517305 11188169
0.75416237 -0.018090185 -0.025700189 10989501
0.76545554 -0.016570739 -0.0253543 10463416
0.77307749 -0.011321194 -0.026292684 9146522
0.76832926 -0.0058716838 -0.026182041 6974304
0.77479619 -0.0094701918 -0.024514424 7698302
0.77814847 -0.091669008 -0.011805234 5455679
0.76717174 -0.084911793 -0.014403206 7827821
0.77333456 -0.084365994 -0.013975907 7959665
0.75797915 -0.07399682 -0.013292161 10263971
0.76493233 -0.075021252 -0.013196177 10197923
0.74668497 -0.061011333 -0.014061517 11846607
0.75427532 -0.064738341 -0.013210037 11845580
0.7652036 -0.068772621 -0.015784603 11583688
0.74868309 -0.058234371 -0.013915632 11186883
0.75326401 -0.053049922 -0.013469243 11846353
0.74667925 -0.046824705 -0.013944801 11977943
0.75385809 -0.042045694 -0.013203584 11781333
0.74650812 -0.036885735 -0.013969578 11846101
0.75672585 -0.03276531 -0.013270215 11583186
0.74700832 -0.026902504 -0.014033177 11451340
0.75633818 -0.026734969 -0.013588838 11450829
0.76097107 -0.023910249 -0.014170992 11122377
0.75615191 -0.018053427 -0.014195308 10988473
0.76504266 -0.016584484 -0.014368288 9541289
0.77332461 -0.01202176 -0.015213732 6838880
0.76832086 -0.0058929157 -0.017359214 5195075
0.77681434 -0.0094702104 -0.010002027 8552063
0.78359038 -0.0062020593 -0.01328017 5654866
0.7760883 -0.091523118 -0.00013555191 6643048
0.76692057 -0.084211633 -0.0020156964 7631736
0.77242756 -0.081040621 -0.0029122727 8290701
0.75675428 -0.074201331 -0.0026450092 8486285
0.76407361 -0.074752107 -0.0014863942 7434619
0.74667412 -0.061038706 -0.0026863175 10002085
0.75385308 -0.065121062 -0.0013713865 8553102
0.76291853 -0.065848112 -0.0043144482 8817556
0.74818546 -0.05820645 -0.002520794 11846610
0.75473994 -0.053122055 -0.0019249598 11977683
0.74601007 -0.046817169 -0.002574086 11977687
0.75466943 -0.042379491 -0.0025322202 11780821
0.74650359 -0.036892764 -0.0040191244 11780562
0.75377506 -0.032568175 -0.0019692224 11648721
0.76036549 -0.035009608 -0.0043872572 11451860
0.7474978 -0.026917668 -0.0026179454 11254475
0.75697291 -0.025288794 -0.0019380208 11385036
0.76147807 -0.023906812 -0.0028353659 11056584
0.75314021 -0.018177951 -0.0026222488 10791869
0.7652483 -0.016844708 -0.0024937913 10266293
0.77195853 -0.014116931 -0.0046415916 9739698
0.77752227 -0.0093826894 -0.0029084515 7435650
0.7770862 -0.091586292 0.0086086188 7566981
0.76718348 -0.082629688 0.0069018551 10199720
0.77544326 -0.085389256 0.0058776252 8620177
0.75712895 -0.074222483 0.0059912503 11648199
0.76357698 -0.074172616 0.0070465272 11188678
0.74767005 -0.061080221 0.0058526564 12043478
0.75358808 -0.064474851 0.006828214 11911892
0.76317799 -0.065822452 0.0042546024 11387351
0.74918717 -0.058213651 0.0060228254 11846868
0.75523281 -0.053130627 0.0065388344 11978198
0.74751025 -0.046824533 0.0059542581 11912407
0.75434035 -0.042371128 0.0059267627 11911894
0.74650073 -0.036894158 0.0059370454 11780564
0.75610417 -0.03112042 0.00546666 11648718
0.76037204 -0.034979157 0.0040926859 11518164
0.74874127 -0.026917029 0.005959223 11254218
0.75616241 -0.026747279 0.0064138048 11385550
0.76147366 -0.023911174 0.0056731254 11057612
0.75313193 -0.018198742 0.0060177231 10923455
0.76536793 -0.016831167 0.0061874767 10595261
0.77238148 -0.013519872 0.0067525124 10396851
0.76830405 -0.0059353784 0.00028644153 7172474
0.77432203 -0.0095102619 0.0057553463 8949925
0.76681417 -0.083851852 0.014851495 9738914
0.77365899 -0.084940732 0.015664842 9277849
0.78073281 -0.08771196 0.012747245 7698559
0.75805587 -0.072923034 0.014873106 11516874
0.76458621 -0.075388655 0.015400459 11122370
0.74742782 -0.060147569 0.013444697 11977943
0.754228 -0.064196125 0.016432986 11911634
0.76192188 -0.065758646 0.012803262 11583184
0.75530815 -0.053131763 0.015007203 11977942
0.74759197 -0.046822954 0.014491289 11978200
0.75449467 -0.042045821 0.015007612 11912149
0.74403602 -0.038385019 0.014412408 11912150
0.75634009 -0.032695316 0.014955943 11648977
0.7487331 -0.026937684 0.014542053 11320268
0.75798714 -0.025303204 0.015188538 11319756
0.76292276 -0.022721507 0.014879033 11187914
0.75512415 -0.018155178 0.014695946 10792894
0.76456022 -0.016002901 0.014066488 10332602
0.77262473 -0.013522709 0.015504529 10266296
0.76629174 -0.0060655084 0.01495283 6975873
0.77546847 -0.0094597843 0.014428344 8819103
0.78582281 -0.0051752711 0.018119423 7106434
0.76778406 -0.085080743 0.024053071 8883095
0.77312863 -0.085024282 0.028450096 9212829
0.75737274 -0.074236631 0.024715696 11451853
0.76550192 -0.076125517 0.027127508 11319749
0.75398242 -0.064006671 0.027027706 11846870
0.76167792 -0.065712571 0.024205506 11452882
0.74694628 -0.058275383 0.025775449 12175323
0.75384396 -0.052969288 0.026929576 11978713
0.74756593 -0.046504021 0.025554935 12109787
0.75440162 -0.042049784 0.026290884 11978202
0.74699396 -0.036900122 0.024436062 11911894
0.75614125 -0.032455768 0.026555905 11648980
0.7487222 -0.026965223 0.025985824 11582416
0.75846463 -0.0253003 0.026624877 11451085
0.76299447 -0.023360483 0.025691429 11319756
0.75411284 -0.018215118 0.026215831 10661824
0.76584816 -0.015864545 0.026570901 10464445
0.77381641 -0.014698748 0.024419112 10464187
0.77728963 -0.0089414269 0.025560239 8424602
0.75593662 -0.065530412 0.03404944 12634836
0.75590503 -0.05422911 0.033689957 12439255
0.74412221 -0.046930183 0.034247708 13095119
0.75793833 -0.043244265 0.032346345 12045022
0.74451852 -0.038435798 0.034313291 13161435
0.76039392 -0.034877654 0.03235916 11912658
0.75969875 -0.02515104 0.03357514 11911374
0.76838028 -0.017965129 0.032516062 11450831
0.77548343 -0.012072848 0.032757975 10792631
