# .PCD v0.7 - Point Cloud Data file format
VERSION 0.7
FIELDS x y z rgb
SIZE 4 4 4 4
TYPE F F F U
COUNT 1 1 1 1
WIDTH 253
HEIGHT 1
VIEWPOINT 0 0 0 1 0 0 0
POINTS 253
DATA ascii
0.75805259 -0.080539897 -0.064009845 11909313
0.77555996 -0.081628382 -0.060190711 11647943
0.75320148 -0.07450857 -0.063572101 11580857
0.75482965 -0.062713102 -0.062042587 12041670
0.76383328 -0.063872159 -0.06468983 11383229
0.75157946 -0.05894905 -0.063037761 11842229
0.74845046 -0.047383882 -0.062794656 8750210
0.7533536 -0.046820387 -0.063667901 9999782
0.75421333 -0.03398801 -0.06346181 8945027
0.74935365 -0.028299419 -0.063025005 7762283
0.75049824 -0.022521222 -0.063093543 7761769
0.76326168 -0.020133957 -0.060256258 12043217
0.75338876 -0.017555859 -0.063287675 7957350
0.77012372 -0.014322155 -0.06088629 11713474
0.7728802 -0.0085263168 -0.061196879 12107454
0.81967497 -0.09619835 -0.05037393 10330287
0.82695425 -0.092190079 -0.05032156 9672359
0.83003461 -0.090828225 -0.052026771 10792382
0.75954688 -0.080636457 -0.055370744 11449799
0.762896 -0.08667919 -0.052714486 9608627
0.77551895 -0.081651136 -0.051585127 10068660
0.82852864 -0.083774358 -0.051510431 10727108
0.75620395 -0.072646111 -0.05490078 11911376
0.76709354 -0.074624628 -0.054354604 11516870
0.77567142 -0.077650368 -0.057975858 10397106
0.74884391 -0.068593435 -0.054544393 12832736
0.75659376 -0.063230187 -0.052660026 12044764
0.76361102 -0.067785837 -0.057183523 11911892
0.74316728 -0.055559374 -0.054069996 12833764
0.75448835 -0.053914689 -0.055365216 12702696
0.74445289 -0.043601308 -0.053992447 12965611
0.75259608 -0.042912472 -0.054923624 12833254
0.74526167 -0.035015728 -0.054039828 12768741
0.75250632 -0.035542 -0.054949701 13096425
0.7486887 -0.026048884 -0.054297563 12899302
0.75567746 -0.027221039 -0.055245925 12767459
0.7611748 -0.020194381 -0.051490985 11977944
0.75774997 -0.015329349 -0.054726332 12175062
0.7659108 -0.012422267 -0.055167422 12108498
0.76822186 -0.005896321 -0.052870736 11385040
0.77555811 -0.0047533824 -0.053126544 11450062
0.82151175 -0.10265733 -0.044198111 9342105
0.84113705 -0.10347236 -0.040189981 7963275
0.82366681 -0.096470848 -0.044288848 9806514
0.83385569 -0.095472515 -0.045331333 9344927
0.84007132 -0.094505563 -0.040225636 10136260
0.75904155 -0.080643766 -0.043671444 10201006
0.77419811 -0.082402363 -0.043541182 9871546
0.83307105 -0.087079167 -0.045498017 10134970
0.75620103 -0.072656207 -0.043277949 10923184
0.76837695 -0.076377615 -0.04320902 10989500
0.77514851 -0.075615704 -0.045237143 10463163
0.7519908 -0.066717558 -0.043023929 11451341
0.76516706 -0.066665351 -0.044618718 11318463
0.74537325 -0.055732246 -0.042674914 11187398
0.75761104 -0.055164158 -0.044133902 11120321
0.74532509 -0.043612279 -0.042602684 11515851
0.75474304 -0.046833925 -0.042119518 11450830
0.74679524 -0.033577673 -0.04267101 12371928
0.75455284 -0.032756437 -0.043870907 11647691
0.74935645 -0.02490524 -0.042808399 11977432
0.75586933 -0.024379376 -0.043915942 11780827
0.76214296 -0.020205963 -0.040066238 11780566
0.75827932 -0.014485614 -0.04331284 11122382
0.76424056 -0.015134756 -0.042296097 11254482
0.7679674 -0.0052923672 -0.043861739 9607338
0.77502853 -0.0043567261 -0.044661749 10135483
0.82749826 -0.10311203 -0.034971569 8685459
0.84352762 -0.10072704 -0.03101596 9607584
0.82970816 -0.094751962 -0.036098931 10926542
0.83587319 -0.096133895 -0.035276692 9080992
0.84142578 -0.091650181 -0.034110595 9678018
0.76003635 -0.080716141 -0.034959685 9148327
0.77854866 -0.081892833 -0.031631034 9540765
0.84061658 -0.087378539 -0.036355868 10531267
0.75644851 -0.072674036 -0.034571439 6510701
0.76554501 -0.073220596 -0.033475269 9733756
0.77208471 -0.075716667 -0.036717817 7698830
0.75572002 -0.064227536 -0.03480573 10526893
0.7649228 -0.066612877 -0.035946034 8290957
0.7454536 -0.055746913 -0.034087006 9605285
0.75515026 -0.053029906 -0.034302842 11054773
0.76071239 -0.057977546 -0.035730854 6380155
0.74519789 -0.04361866 -0.034007467 8749199
0.75425744 -0.045911286 -0.033156499 10065571
0.74575651 -0.035028003 -0.034023196 10987941
0.75454247 -0.035001896 -0.035289824 10987173
0.74751455 -0.026105041 -0.034118552 11780310
0.75817913 -0.025349678 -0.035532176 11780819
0.75741887 -0.015983649 -0.034536235 10859981
0.76226693 -0.015140481 -0.033975352 11318992
0.76922351 -0.0058293021 -0.03342526 9345967
0.77679402 -0.0034095356 -0.034985948 9411248
0.82841265 -0.10638934 -0.025476146 7895428
0.84452885 -0.10083125 -0.021732278 8422796
0.83687788 -0.096662439 -0.022251274 8817814
0.84141612 -0.093480267 -0.025276499 9215154
0.75903285 -0.080691203 -0.026162945 10000024
0.7708478 -0.082974799 -0.02318476 5920082
0.84664893 -0.084425271 -0.027006553 6515063
0.75594664 -0.072661087 -0.02583403 8943985
0.76637965 -0.074287541 -0.023753867 10065310
0.77377856 -0.077640675 -0.0247574 9869209
0.7470926 -0.06479542 -0.026163595 11314325
0.75677633 -0.063260578 -0.024058562 11312779
0.76545393 -0.067531034 -0.026340928 8813700
0.74168831 -0.05418136 -0.024036884 11314847
0.75526816 -0.055386171 -0.026506597 11248256
0.74482059 -0.043625124 -0.025407135 10456951
0.75356132 -0.046803303 -0.025120866 11050648
0.74704111 -0.033587638 -0.025469238 11118242
0.75442284 -0.036197368 -0.024707904 10458506
0.74969065 -0.025394181 -0.026031464 11253443
0.75513506 -0.025731668 -0.024094952 11582664
0.76103812 -0.020270225 -0.022805696 11321301
0.75813693 -0.014993604 -0.025353037 10859210
0.76448601 -0.013573721 -0.02640258 10859207
0.76733905 -0.0057948176 -0.025302377 8424350
0.77532649 -0.0059617138 -0.024421822 9674164
0.82890707 -0.1064548 -0.015933663 7565682
0.84422272 -0.10083463 -0.012407655 8553864
0.83533806 -0.098175772 -0.014191859 10200496
0.84209126 -0.093477726 -0.015682722 9411250
0.76002616 -0.080771558 -0.014506433 10332079
0.77084768 -0.082966261 -0.014304763 4010552
0.75644332 -0.072691709 -0.014224814 10991817
0.76457739 -0.07349053 -0.012739464 10990267
0.77428198 -0.0767086 -0.01415251 10002341
0.74932355 -0.06871935 -0.014259105 11122631
0.75675786 -0.063271284 -0.012611734 11252932
0.76544493 -0.06651938 -0.015754798 10794441
0.7432723 -0.05567091 -0.014098785 11384262
0.75529826 -0.054049093 -0.015200326 10988727
0.74419254 -0.04363383 -0.013946811 11647696
0.75434202 -0.043771435 -0.015577875 11780824
0.7455014 -0.035047866 -0.013963956 11583185
0.75427246 -0.036182217 -0.013399987 11714255
0.74714935 -0.025599338 -0.014077408 11451603
0.75437284 -0.027002012 -0.013939847 11648981
0.7620061 -0.020281889 -0.011350469 11320277
0.75852197 -0.014502503 -0.014199726 10793671
0.76507604 -0.015066519 -0.013622525 10925773
0.76615012 -0.0056212312 -0.014741165 7435143
0.77470446 -0.0048127891 -0.015255596 9015720
0.82448685 -0.10298336 -0.0031602173 9015442
0.84152663 -0.10164555 -0.0010090623 7829886
0.82921886 -0.093746707 -0.0031523607 8358299
0.83688307 -0.09612748 -0.0044066045 9475232
0.84859616 -0.09221682 -0.0062251282 7896991
0.76051986 -0.080827609 -0.0028191521 10659513
0.77462268 -0.082448214 -0.0055228174 7498863
0.84466243 -0.086338669 -0.0056366939 7238015
0.75619054 -0.07269153 -0.0025980303 9212582
0.76627916 -0.076841064 -0.0024512084 10595517
0.77015162 -0.075221978 -0.0041970466 10070197
0.74739039 -0.065819658 -0.0027226405 9606567
0.7546438 -0.064749353 -0.0024063825 9014947
0.76520288 -0.066453725 -0.0042059533 9807801
0.7416777 -0.054239262 -0.0026655362 8619675
0.7541073 -0.052960303 -0.0031142468 7368065
0.76074034 -0.057812531 -0.0042189113 9212060
0.74518979 -0.043647271 -0.0025159856 10068917
0.75384569 -0.043713015 -0.0042437711 9409188
0.74524844 -0.035060316 -0.0025085059 11781085
0.75458735 -0.032552972 -0.0042962027 11584216
0.74767059 -0.026147611 -0.002543556 11452117
0.75843209 -0.025337635 -0.0051701111 11583446
0.75810766 -0.015014738 -0.0030335612 10793673
0.76231688 -0.015575128 -0.0044195843 10991312
0.76645863 -0.0054009613 -0.0040485952 7698311
0.77492458 -0.0053266212 -0.0039532497 9410988
0.8254807 -0.10308076 0.006359098 7566205
0.82372069 -0.093443364 0.0063710003 9476779
0.83464068 -0.095301531 0.0049462924 9212840
0.76001596 -0.080826968 0.0059468229 10660281
0.77527297 -0.081787661 4.8393951e-05 8881553
0.83451355 -0.086515307 0.0059095686 9015714
0.75416619 -0.074737988 0.0059204097 11188167
0.76437247 -0.07277371 0.0042781122 10464448
0.77309972 -0.077108458 0.0065984996 10003638
0.74503016 -0.060042832 0.0058923457 11912923
0.75626755 -0.064319164 0.0052101724 10595776
0.76495862 -0.066401325 0.0044533974 10926797
0.74174452 -0.051413797 0.0058907564 11716831
0.75400692 -0.053083964 0.0055055036 11320530
0.76074797 -0.057767525 0.0043752533 11780825
0.74543762 -0.043654062 0.0060742386 11912923
0.75418097 -0.045859635 0.0064029312 11782622
0.74728292 -0.033612501 0.0060980786 11780827
0.75377828 -0.035916984 0.0053777136 11649237
0.75432765 -0.025926512 0.0052345432 11452118
0.76090831 -0.020342276 0.0044453288 11320270
0.7576586 -0.016010528 0.0061854911 10793930
0.76469487 -0.013808173 0.0039705168 10859466
0.74843657 -0.0012761363 0.0033129363 6187907
0.75599706 -0.0066726753 0.00043492886 9807292
0.76745373 -0.0053609209 0.006258314 8293281
0.77492237 -0.0050747907 0.0060292929 9608878
0.82479739 -0.093012907 0.012849797 10396853
0.75901252 -0.080801912 0.014697853 10331573
0.76585764 -0.087039255 0.01775199 11318201
0.77985275 -0.083391644 0.01845297 11186619
0.78233731 -0.081426904 0.016486833 11316923
0.82488108 -0.08568126 0.013110271 9081513
0.83412695 -0.086825073 0.011291945 10003127
0.75693548 -0.072737575 0.014852937 11320266
0.76591951 -0.07433109 0.015524765 10925251
0.77352762 -0.077576026 0.015758831 10331576
0.74502593 -0.0600661 0.014480884 11781083
0.75481623 -0.065148175 0.015531652 11649493
0.76532221 -0.067312092 0.01409052 11122894
0.74174029 -0.051436957 0.014439296 12109278
0.75537086 -0.054131523 0.014430054 11781080
0.74556041 -0.04366307 0.014667439 11978463
0.75588596 -0.043620162 0.012773221 11912155
0.74740577 -0.033617504 0.014712296 11715547
0.75533789 -0.034932498 0.015331331 11781085
0.74990189 -0.028099393 0.013911624 11649498
0.75484353 -0.024702556 0.015838858 11452118
0.76186919 -0.020357851 0.017380536 11320530
0.75728089 -0.016032234 0.014906557 10859722
0.76419669 -0.01409136 0.015098244 10990795
0.76770389 -0.0053541167 0.015100783 8424608
0.77473754 -0.0052868798 0.014417646 9609139
0.76371539 -0.082545094 0.026511941 9739947
0.77504051 -0.082506388 0.025084099 8683917
0.75745654 -0.071801975 0.026989054 11320525
0.76477778 -0.076748088 0.026932975 10858940
0.7714588 -0.075621322 0.025371639 10726848
0.74552006 -0.060110133 0.025951056 11847389
0.75542217 -0.064877175 0.025758771 11715032
0.76487368 -0.067035802 0.026247419 11386067
0.74173462 -0.051467836 0.025837347 12110307
0.75385118 -0.054885741 0.026866984 11781854
0.74568248 -0.043672644 0.026129203 12109792
0.75488347 -0.043562766 0.024093019 11912671
0.74548495 -0.031471074 0.026000774 11781084
0.75386083 -0.034909036 0.02682979 11912927
0.7525416 -0.024624681 0.025518665 11517913
0.76195443 -0.023187248 0.028842676 11648985
0.75727785 -0.016043365 0.026539862 10991054
0.76435095 -0.014069058 0.026670113 10990540
0.76899046 -0.0060195117 0.027031692 9740983
0.77473521 -0.0057609421 0.025165681 9279406
0.76758063 -0.075949937 0.031359069 11384258
0.75355083 -0.054648098 0.034365971 12437976
0.74844873 -0.04728983 0.034995779 12964054
0.75387836 -0.043520331 0.0325519 12307424
0.75512809 -0.032348204 0.032469902 12176096
0.74930501 -0.028564364 0.034765106 12570337
0.75695437 -0.023947515 0.032446675 11978715
0.7618404 -0.01540128 0.032554258 11517391
0.77243471 -0.0087735308 0.032302681 11186887
