# .PCD v0.7 - Point Cloud Data file format
VERSION 0.7
FIELDS x y z rgb
SIZE 4 4 4 4
TYPE F F F U
COUNT 1 1 1 1
WIDTH 215
HEIGHT 1
VIEWPOINT 0 0 0 1 0 0 0
POINTS 215
DATA ascii
0.82186627 -0.094726384 -0.06300205 12306648
0.77387464 -0.070004113 -0.061368339 12302277
0.76766431 -0.065187059 -0.063414894 12303820
0.76200384 -0.056447558 -0.063009068 12041677
0.77357513 -0.058490623 -0.067035973 12107727
0.75711465 -0.047035426 -0.063600346 11451344
0.75526327 -0.039297186 -0.06256672 8950443
0.7536031 -0.022794325 -0.063370697 10725306
0.75536323 -0.016514253 -0.06271302 9014958
0.81752723 -0.10050441 -0.051902145 11585241
0.81563503 -0.094399638 -0.052771058 10531271
0.78307354 -0.083252259 -0.058666538 12307937
0.80743504 -0.083321206 -0.052924484 10662857
0.81411189 -0.085971646 -0.053186163 10793420
0.76996398 -0.072654299 -0.059785668 12700128
0.77547246 -0.075678796 -0.054927703 10728137
0.78092968 -0.070194885 -0.05605042 10264761
0.76692486 -0.063802019 -0.056638129 12371410
0.77188647 -0.066217169 -0.0566434 11844814
0.75988847 -0.054928873 -0.056119699 12766687
0.76411384 -0.05584307 -0.056587961 12174036
0.75822753 -0.047072254 -0.055074576 12767202
0.76114982 -0.047020543 -0.057320092 12108501
0.75776881 -0.036455311 -0.056012049 12438752
0.75685722 -0.025778228 -0.0553069 12702179
0.76291925 -0.021763053 -0.057221178 13030635
0.75771528 -0.01936581 -0.054248862 12635617
0.76365262 -0.013735604 -0.056090236 12439010
0.76699424 -0.0080187377 -0.055775903 12307165
0.77263409 -0.0037296684 -0.055751931 12240857
0.78117776 -0.001189399 -0.055500519 11318223
0.77180433 0.0043424959 -0.052396581 12173269
0.78817016 0.0049567362 -0.053025365 10528705
0.82216156 -0.10544062 -0.042940058 10068131
0.8181805 -0.095174931 -0.046522055 10464966
0.82009864 -0.098984845 -0.046641737 10332343
0.814475 -0.087312996 -0.047490723 11254226
0.77618659 -0.071471676 -0.046252273 10726592
0.78125513 -0.077439561 -0.04092136 11384768
0.81396025 -0.079241477 -0.048228599 11320528
0.76666212 -0.063812651 -0.044979133 11516360
0.77111912 -0.066209927 -0.044985723 11253706
0.75887585 -0.0549208 -0.04453126 11580598
0.76461625 -0.055849064 -0.045137152 11385031
0.75782382 -0.047098242 -0.043563269 11713745
0.76116461 -0.046996623 -0.04593727 11978458
0.75755286 -0.035749163 -0.044243243 11119800
0.76192522 -0.038562216 -0.045925032 12305620
0.75675362 -0.025805147 -0.043811277 11186880
0.76445901 -0.021684734 -0.045967601 12108758
0.75768083 -0.019420259 -0.042729042 11185591
0.76364398 -0.013746793 -0.044572342 11713998
0.76625156 -0.0076342216 -0.043232486 11385297
0.7727685 -0.0048631639 -0.045131527 10924486
0.78118908 -0.0011711463 -0.046814829 10990286
0.77478337 0.0044540521 -0.0437232 9014168
0.81809282 -0.11198551 -0.032428123 7895663
0.82373452 -0.11018229 -0.030669006 9606289
0.82234877 -0.10442109 -0.035960652 9805480
0.82005024 -0.099706434 -0.03871645 12703463
0.77668428 -0.071493097 -0.036011666 10266037
0.78193015 -0.077551953 -0.033890139 8815499
0.76609099 -0.060537077 -0.033124555 9012103
0.77104729 -0.066441588 -0.036339916 10991302
0.75886643 -0.054929521 -0.035891268 7168355
0.76495218 -0.055850193 -0.036539238 7563895
0.75831151 -0.047131389 -0.034970917 10856631
0.76117569 -0.046978682 -0.037400153 12700379
0.75721151 -0.035760697 -0.035661753 9735580
0.76041698 -0.038561147 -0.037323527 7234432
0.75707442 -0.025821328 -0.035208721 8486536
0.76396209 -0.02168246 -0.03741027 7369093
0.75664943 -0.019481923 -0.034045614 9471620
0.76479459 -0.013597224 -0.034917373 11580600
0.76645076 -0.00809527 -0.035342894 11188174
0.77344936 -0.0037197981 -0.03440563 10530240
0.78120035 -0.0011528938 -0.03812914 10268872
0.7767517 0.0045002308 -0.031977866 7633283
0.78512454 0.0047804019 -0.038286708 8422543
0.82308626 -0.1128042 -0.023862623 6972254
0.81974393 -0.1082046 -0.028070414 6842999
0.82455903 -0.10384572 -0.025135929 11254216
0.83203387 -0.1006024 -0.020315707 8226455
0.8326149 -0.09658131 -0.025322031 6447480
0.78296793 -0.083419278 -0.023329942 5328206
0.77734524 -0.073434316 -0.02783177 9410461
0.78215814 -0.076783597 -0.025038874 7630709
0.76338089 -0.060821358 -0.027408957 9932692
0.77137643 -0.066457279 -0.026660085 10001837
0.75885701 -0.054938246 -0.027251281 8680050
0.76338983 -0.054618288 -0.027306482 10324608
0.75816894 -0.047154568 -0.026346246 11379612
0.76169246 -0.046960149 -0.028883217 10921115
0.75753814 -0.0385665 -0.027118782 10851955
0.76169217 -0.030123344 -0.028828597 12041653
0.75722623 -0.025838906 -0.026592875 10523779
0.76448113 -0.021648871 -0.028904792 10324601
0.75712651 -0.019512322 -0.025431337 11244924
0.76180434 -0.014079915 -0.026450053 10328983
0.76720291 -0.0076811025 -0.025752448 11055810
0.77363759 -0.005312535 -0.025930267 10265779
0.78172183 -0.0011038957 -0.029459894 10332612
0.78923339 0.0050932453 -0.020947887 6118246
0.82353163 -0.11426916 -0.015244242 7234911
0.81975603 -0.10818505 -0.018767586 6315114
0.82456392 -0.10429728 -0.016001297 10795207
0.77641749 -0.072975591 -0.016086051 10657946
0.78152096 -0.074833527 -0.016685473 8091766
0.76688051 -0.063850775 -0.015891518 11122377
0.77160013 -0.066265255 -0.015995603 10925767
0.75984448 -0.054969631 -0.015754031 11320274
0.764781 -0.055853933 -0.016424084 11648979
0.75751793 -0.047180563 -0.014845935 11385545
0.76120156 -0.046936821 -0.017480211 11847644
0.75645065 -0.038602624 -0.014810288 10591911
0.76082027 -0.034321062 -0.017464083 11053492
0.75720543 -0.025865136 -0.015096764 11385289
0.76449591 -0.021624958 -0.017525777 11384259
0.75709212 -0.019566715 -0.013922947 11845583
0.76178074 -0.01411313 -0.0148692 11450828
0.7728073 -0.010043737 -0.017694725 10858953
0.76766181 -0.0081063416 -0.014964172 10859462
0.77228606 -0.0020643296 -0.015038684 9938107
0.78224707 -0.0010487821 -0.017883988 10266813
0.82366073 -0.11029897 -0.0059836754 9933706
0.82355624 -0.10362042 -0.005554474 8949919
0.82201016 -0.099890381 -0.0013677981 8953526
0.77694088 -0.071481407 -0.0052294247 10266544
0.78264368 -0.076828793 -0.0044401567 6250084
0.76778883 -0.063843556 -0.0043140156 11122892
0.77278966 -0.064102605 -0.0090420255 10992077
0.76252407 -0.054764826 -0.0043002111 9806778
0.75799453 -0.047217652 -0.0033631078 9411506
0.76172203 -0.046912268 -0.0060985223 10857406
0.75592721 -0.038637042 -0.0033361679 8619927
0.76134306 -0.034281503 -0.0061167162 9212065
0.7556802 -0.02864226 -0.0033089891 8225169
0.76234758 -0.020983353 -0.0051666284 10660280
0.75756037 -0.01961083 -0.0024096686 11845842
0.76175708 -0.014146347 -0.0032883426 11319758
0.77180338 -0.010069875 -0.0062104729 11056844
0.76738715 -0.0081487689 -0.0032848236 10924999
0.77476293 -0.0019788535 -0.0032925215 10004413
0.78226215 -0.0010244132 -0.0062878332 10137026
0.78925616 0.0051300875 -0.0034165117 5198433
0.82159281 -0.11015719 0.0032623881 8158340
0.81978422 -0.10813943 0.0029390152 6977158
0.82021767 -0.10349394 0.0056153908 9211555
0.81999022 -0.096638076 0.0048599578 8819116
0.82166654 -0.098969176 0.0029206318 10333117
0.77683765 -0.0730891 0.0036496099 10266039
0.78163046 -0.076803967 0.0043867053 8028298
0.76813745 -0.062978514 0.0038341105 11188937
0.77424085 -0.067810103 0.0043490352 11056839
0.76302201 -0.054790214 0.0043324437 11452629
0.75822955 -0.047246642 0.0052554123 11781590
0.76223886 -0.046893664 0.0024450789 11584733
0.75690973 -0.03865863 0.0052715205 11978711
0.76110005 -0.034271456 0.0024000343 10662860
0.7561661 -0.028662294 0.0053015137 11650266
0.76234841 -0.020978767 0.0034276401 10663115
0.7575345 -0.019651666 0.0062301969 11386578
0.76223934 -0.014154486 0.005401195 11057611
0.7723242 -0.010024789 0.0023844964 11122896
0.76837099 -0.008135438 0.0054743965 10990534
0.77349448 -0.0020637864 0.0055390368 10266810
0.78227347 -0.0010061366 0.0024092835 10202050
0.77764714 0.0043829614 0.003589577 7370637
0.79028535 0.0052114786 0.0024324739 6845327
0.81937099 -0.10096415 0.012519345 10199466
0.81782007 -0.095324941 0.012596786 10464185
0.81228775 -0.084779464 0.012382113 7767189
0.77673382 -0.072846808 0.013219606 10398397
0.7820946 -0.077772632 0.017921451 11386835
0.76682693 -0.062524132 0.01303051 11386320
0.77036089 -0.066901825 0.013279226 10991559
0.76234055 -0.054796588 0.012955477 11715543
0.75871199 -0.047275521 0.013885882 11912919
0.76174426 -0.046876371 0.010983331 11912670
0.75764656 -0.038685504 0.013897263 11978203
0.76187146 -0.03424127 0.010927805 11715803
0.75799245 -0.025914555 0.013661641 11714775
0.76504087 -0.021549476 0.010918682 11452374
0.75793672 -0.017764904 0.013929963 11517911
0.76375371 -0.013816562 0.013994917 11320276
0.76860404 -0.0081516765 0.014246305 10925257
0.77542281 -0.0036746084 0.013278977 10333123
0.78228474 -0.00098785991 0.0111064 10399433
0.77761161 0.0043268562 0.015459869 7042959
0.78457171 0.0040836134 0.016605923 6975876
0.79029673 0.0052299234 0.01120959 7042191
0.77605629 -0.072364271 0.025875669 10660278
0.78261888 -0.076867312 0.025007188 8291988
0.7666167 -0.063283235 0.02558266 11517906
0.77288979 -0.066943347 0.023597995 10991048
0.76390874 -0.055662043 0.024012141 11650010
0.75894374 -0.047314074 0.025397226 11847389
0.76175904 -0.046852432 0.022373773 11781853
0.75762308 -0.038718432 0.025392406 11978462
0.7613796 -0.034223724 0.022273678 11912670
0.75797242 -0.025942482 0.025173781 11781083
0.76556414 -0.021506045 0.022317469 11518169
0.75847977 -0.019726522 0.026430126 11780825
0.76245028 -0.014207007 0.025691599 11320014
0.76654398 -0.007947457 0.02681705 11253197
0.77347147 -0.005612297 0.024978656 10596293
0.78229982 -0.00096349115 0.022702558 10398916
0.77758503 0.0042847767 0.024362588 6976400
0.79439461 0.0055250102 0.020098913 6712965
0.76748747 -0.056256756 0.032031666 12109781
0.75900471 -0.048038647 0.032022174 12504803
0.76151925 -0.038401559 0.030833976 12241120
0.7646873 -0.02571911 0.030859157 12174300
0.77236146 -0.0099645471 0.031051083 11385296
0.78231114 -0.00094521441 0.031399671 10727617
