# .PCD v0.7 - Point Cloud Data file format
VERSION 0.7
FIELDS x y z rgb
SIZE 4 4 4 4
TYPE F F F U
COUNT 1 1 1 1
WIDTH 192
HEIGHT 1
VIEWPOINT 0 0 0 1 0 0 0
POINTS 192
DATA ascii
0.77869487 -0.083003245 -0.060321223 13752806
0.76361889 -0.072626792 -0.063934118 12370894
0.76216805 -0.065887816 -0.063754149 12304324
0.7523607 -0.046535213 -0.063033707 11712194
0.75395006 -0.034784548 -0.06379538 12503250
0.75772041 -0.028389754 -0.063615084 12435665
0.76547229 -0.022975469 -0.060191616 11183027
0.7899155 -0.10051395 -0.054103918 10003636
0.79456073 -0.10338876 -0.052358791 9345456
0.78372872 -0.094147213 -0.053690404 10661046
0.79024053 -0.093517356 -0.053946219 10135222
0.76836246 -0.08153984 -0.055574611 12701916
0.77561736 -0.084503002 -0.055343118 11977170
0.78088921 -0.088298537 -0.05454275 9542584
0.76475894 -0.073568933 -0.055229485 12569822
0.77122754 -0.079351582 -0.055423986 12766171
0.75776535 -0.064601615 -0.055842742 13030373
0.76214081 -0.065698393 -0.056147687 12372444
0.75583917 -0.053632665 -0.055151906 12767458
0.75620508 -0.044131704 -0.054968499 12372443
0.75725657 -0.035251636 -0.054739181 12635874
0.76067388 -0.031060737 -0.054910265 12041164
0.75970834 -0.028320381 -0.055119149 12767713
0.76383179 -0.024211438 -0.05540489 12569311
0.76938272 -0.016876988 -0.054332718 12240858
0.77358359 -0.01391544 -0.054166358 12042454
0.78086287 -0.0080964621 -0.05573542 12109014
0.79338634 -0.12360232 -0.041985728 8423313
0.7887888 -0.11384895 -0.046502035 9739172
0.79234105 -0.11542932 -0.044801842 9672349
0.78923082 -0.10356686 -0.047108214 10134964
0.79257214 -0.10887798 -0.049218349 9013653
0.78849965 -0.093813755 -0.046695005 10397368
0.79353034 -0.095741831 -0.045538113 10791607
0.76934344 -0.081601739 -0.043970041 11451087
0.77451974 -0.082124442 -0.04501697 10661570
0.78399992 -0.087685183 -0.04394358 10727878
0.76482409 -0.075086117 -0.043672096 11517648
0.77123213 -0.076431528 -0.046197679 11254734
0.75776327 -0.064139664 -0.044867426 12109272
0.76191318 -0.065633371 -0.044617586 11912410
0.75689322 -0.053279333 -0.043872792 11976911
0.75542808 -0.045032982 -0.043534219 11911891
0.75768036 -0.035513002 -0.043665648 11383746
0.75969231 -0.02828679 -0.043568734 11778240
0.76343143 -0.024485448 -0.044134978 11451340
0.76936615 -0.016871089 -0.044092759 11515335
0.77263069 -0.014414025 -0.04414342 10594744
0.78577 -0.0037823541 -0.045183815 8620186
0.79274279 -0.1306908 -0.030257996 7235676
0.79296184 -0.1228069 -0.0323359 9804706
0.78972596 -0.1168732 -0.034449998 12240854
0.79314262 -0.11757682 -0.032997832 11319484
0.77512759 -0.084474482 -0.03338059 10331823
0.78270119 -0.086598143 -0.03704657 12570341
0.7644428 -0.072884195 -0.035037003 11517648
0.77112538 -0.078685611 -0.035719797 11320013
0.7571004 -0.065259382 -0.034674 10923202
0.76128066 -0.065675221 -0.035382524 11649749
0.75771207 -0.054493047 -0.035098407 9077647
0.75662535 -0.044107862 -0.035021562 10395299
0.75736648 -0.036459208 -0.035049953 8750232
0.76195109 -0.031519502 -0.035397939 10394785
0.75968033 -0.028261598 -0.034905922 8489106
0.76321256 -0.025557935 -0.034053091 9671845
0.77320826 -0.015473209 -0.034704115 7959672
0.77791357 -0.0081046168 -0.031874139 9212053
0.79072469 -0.13047948 -0.024194682 5654851
0.79358703 -0.12474424 -0.023683896 8355195
0.79614311 -0.11782648 -0.024081461 11846351
0.78318518 -0.093017034 -0.029729718 7237222
0.76931202 -0.081622265 -0.026469124 11123147
0.77618098 -0.084540613 -0.024400389 9080723
0.76563364 -0.074272126 -0.025858309 11320530
0.77082235 -0.0793394 -0.022434754 11254223
0.75792712 -0.065417081 -0.026063127 11383744
0.76346725 -0.065574683 -0.027418643 11121610
0.75649369 -0.053660035 -0.024707288 10261651
0.76036227 -0.056995887 -0.027298199 9668219
0.75644332 -0.044665806 -0.025131663 10655627
0.75734717 -0.035798822 -0.026133502 11049603
0.76069486 -0.035745591 -0.023856953 10916467
0.7586683 -0.028258627 -0.026205383 11577738
0.76416737 -0.024976112 -0.027088128 10590095
0.76933622 -0.016851604 -0.025075685 9142647
0.77361864 -0.014704887 -0.025573529 9932942
0.78280914 -0.010948115 -0.023270778 9015456
0.79272121 -0.13070488 -0.018250402 5586738
0.7877565 -0.12262604 -0.016319057 11056313
0.79341155 -0.1243501 -0.015311659 9672853
0.79494983 -0.11746453 -0.015747683 9083563
0.76828927 -0.081587687 -0.014774703 11188424
0.77517164 -0.084137514 -0.014314562 9145484
0.78475887 -0.086586483 -0.016313672 5723239
0.76417357 -0.073591284 -0.013401094 11582670
0.77145576 -0.076858766 -0.013513379 11123662
0.75790805 -0.065414727 -0.014559063 11780821
0.76147139 -0.065469675 -0.015847007 11518680
0.75746632 -0.054199342 -0.013733081 11912408
0.7564221 -0.044410948 -0.013943318 11583186
0.75758725 -0.035447795 -0.01499737 10790317
0.76158631 -0.031516351 -0.011013379 11383489
0.75865233 -0.028225105 -0.014677824 10921641
0.76407188 -0.024378829 -0.015354525 11055809
0.77355081 -0.014848341 -0.014751007 9937326
0.78023851 -0.011037832 -0.014327439 9542832
0.79069251 -0.13050056 -0.0062290099 5388846
0.78678453 -0.12246938 -0.0042708847 9474460
0.79305887 -0.1240245 -0.0025274681 7959666
0.78979206 -0.11671534 -0.0043171542 8624558
0.79410523 -0.11758137 -0.0029820357 11058895
0.78795654 -0.091588683 -0.00826173 5719104
0.76927018 -0.081649646 -0.0031167986 11057869
0.77455425 -0.083814494 -0.0033903283 9343382
0.78076702 -0.086314589 -0.0014299073 5856882
0.7593075 -0.071587972 -0.0021193707 11846617
0.76605195 -0.07476069 -0.0044614631 11320268
0.75712311 -0.063286915 -0.003041028 11846613
0.76250792 -0.065427922 -0.0043569347 11715031
0.75702274 -0.053140782 -0.0038502873 11386323
0.75649863 -0.044938415 -0.0035102603 8883615
0.75799751 -0.035416882 -0.0035324788 9409444
0.75963622 -0.028169226 -0.0031422749 7303557
0.76382524 -0.024351329 -0.0038232987 7961740
0.77470922 -0.01375698 -0.0031960581 10003380
0.78840572 -0.12133985 0.0057414691 9607842
0.79519898 -0.12149918 0.0053028353 9936546
0.78681272 -0.11640994 0.0047079292 11518164
0.79371017 -0.11458632 0.0076631783 9742012
0.78588587 -0.093720809 0.0058305245 7304581
0.79309618 -0.094788492 0.009322756 7632774
0.76825273 -0.081611611 0.0056252517 11188684
0.7779066 -0.084553115 0.0051246299 9805483
0.7837984 -0.086428933 0.0045041358 7766429
0.7644819 -0.073095463 0.0050288462 11517907
0.77121544 -0.079367451 0.0047991811 11123912
0.75737399 -0.065395795 0.005570652 11912152
0.76353681 -0.065408602 0.0042817984 11649750
0.75744361 -0.054092567 0.004887565 11650009
0.76043147 -0.056830794 0.0042136721 11520220
0.756845 -0.044050548 0.0049391873 10793415
0.7576918 -0.036364432 0.0050666034 11123407
0.76177061 -0.031517364 0.0047559384 9607853
0.75962418 -0.028144034 0.005520538 11254731
0.76360643 -0.025311276 0.0049856864 11188430
0.77370036 -0.015517398 0.0049452558 10003640
0.78418154 -0.010895776 0.0093361707 9936307
0.78834003 -0.11048331 0.01369034 11320010
0.79120779 -0.11500104 0.012662049 11318975
0.78976876 -0.10346407 0.014448515 9017775
0.79171747 -0.10601021 0.015144294 8425898
0.78968906 -0.095443554 0.014845164 9739441
0.79373115 -0.093880713 0.017178886 11186615
0.76823705 -0.081621863 0.014368089 11319759
0.77519614 -0.083470307 0.015029465 10925512
0.78538132 -0.087866388 0.01436799 11253194
0.76503563 -0.074688561 0.013907184 11320784
0.77012777 -0.079314016 0.017684922 11188169
0.75744313 -0.065396272 0.01419482 11846873
0.76301718 -0.067545496 0.014766322 11650008
0.75717723 -0.053613521 0.015212214 12044254
0.7604503 -0.056785766 0.01280782 11912927
0.75638556 -0.044362288 0.014628216 11912411
0.7571888 -0.036349934 0.013657293 11714775
0.76196694 -0.031514551 0.017675757 11780311
0.7596162 -0.02812724 0.011295745 11254477
0.76385307 -0.025672022 0.013837938 11254483
0.77084053 -0.020940222 0.016934857 11515595
0.77341378 -0.014620495 0.013781655 10070464
0.78180623 -0.010993944 0.015254793 8819881
0.77412581 -0.084449552 0.025218656 9476517
0.76695406 -0.074931495 0.024542376 11320529
0.77213609 -0.079422377 0.029223548 11319241
0.75809151 -0.065412976 0.025717862 11978461
0.76202977 -0.067493014 0.026182447 11781338
0.75796145 -0.054122586 0.026244553 12110046
0.75706482 -0.044575229 0.02584344 12044254
0.75805587 -0.035670388 0.024827361 11780825
0.76293319 -0.031507272 0.029189723 11846620
0.76443696 -0.025821036 0.025784623 11320532
0.76937163 -0.017438153 0.023276841 10727365
0.77348536 -0.015559466 0.02525785 10398659
0.7800799 -0.011039235 0.02110078 9872310
0.78144354 -0.0089970343 0.023412513 9017000
0.76689762 -0.073600553 0.031920355 11715539
0.75600404 -0.065253876 0.033741523 12570330
0.7564168 -0.053815924 0.032653339 12177119
0.75823075 -0.044593841 0.03350943 12833251
0.75852126 -0.036289264 0.033770259 12569561
0.76025826 -0.039963834 0.031891964 12437987
0.76374149 -0.025668904 0.032601707 11321814
0.77130717 -0.016975269 0.032808132 10861259
